# .PCD v0.7 - Point Cloud Data file format
VERSION 0.7
FIELDS x y z
SIZE 4 4 4
TYPE F F F
COUNT 1 1 1
WIDTH 1743
HEIGHT 1
VIEWPOINT 0 0 0 1 0 0 0
POINTS 1743
DATA ascii
93.045998 24.917999 -238.69
93.024002 25.677 -238.16
93.024002 26.047001 -238.16
93.023003 26.584 -238.16
93.023003 26.768999 -238.16
93.050003 28 -238.71001
93.074997 28.434999 -239.25
94.806 -64.322998 -273.07999
95.010002 -62.212002 -277.39999
94.144997 -56.646999 -258.97
94.084 -55.605 -257.69
93.825996 -48.650002 -252.14999
93.472 -43.738998 -244.55
93.553001 -40.740002 -246.27
93.665001 -38.674999 -248.61
93.625 -12.592 -247.52
93.625 -12.207 -247.52
93.273003 12.099 -239.73
93.299004 12.314 -240.27
93.232002 23.823 -238.69
93.232002 24.009001 -238.69
93.261002 28.621 -239.25
95.052002 -64.498001 -273.78
93.880997 -49.062 -249.17
94.051003 -48.766998 -252.75999
93.689003 -43.84 -245.12
93.884003 -38.84 -249.19
93.886002 -38.573002 -249.2
93.818001 -12.403 -247.52
93.462997 16.476 -239.74001
93.473 28.686001 -239.78999
95.299004 -64.666 -274.5
95.334 -61.998001 -275.22
94.366997 -49.992001 -255.21001
94.247002 -48.970001 -252.75999
94.277 -48.883999 -253.36
94.073997 -45.181999 -249.17
93.906998 -43.942001 -245.69
94.106003 -38.931999 -249.78
94.109001 -38.664001 -249.78999
94.064003 -13.113 -248.67999
93.684998 28.750999 -240.34
94.129997 38.168999 -249.46001
96.255997 -68.523003 -289.60001
95.546997 -64.842003 -275.20999
95.583 -62.166 -275.94
94.778 -56.014999 -259.60001
94.473999 -49.087002 -253.36
93.958 -43.284 -242.85001
93.985001 -42.827999 -243.41
94.329002 -39.023998 -250.37
94.329002 -38.830002 -250.37
94.258003 -13.29 -248.67999
93.888 13.145 -240.83
93.889 15.99 -240.84
93.899002 28.816999 -240.89
94.039001 32.842999 -243.67999
94.039001 33.033001 -243.67999
94.039001 33.222 -243.69
94.039001 33.410999 -243.69
94.152 34.543999 -245.97
94.321999 35.806 -249.45
94.322998 36 -249.45
94.322998 36.194 -249.45
94.323997 38.556999 -249.46001
96.521004 -68.720001 -290.39999
95.012001 -56.153 -260.23999
94.700996 -49.205002 -253.97
94.519997 -45.785999 -250.35001
94.346001 -44.147999 -246.84
94.175003 -43.382999 -243.41
94.202003 -42.926998 -243.97
94.375 -40.384998 -247.41
94.553001 -39.117001 -250.96001
94.553001 -38.922001 -250.96001
94.553001 -38.727001 -250.96001
94.480003 -13.321 -249.27
94.102997 13.55 -241.38
94.132004 15.876 -241.94
94.113998 29.07 -241.44
94.255997 32.918999 -244.25
94.255997 33.109001 -244.25
94.255997 33.299 -244.25
94.255997 33.488998 -244.25
94.227997 33.601002 -243.69
94.313004 34.216 -245.38
94.371002 34.624001 -246.53999
94.545998 35.890999 -250.03999
94.545998 36.085999 -250.03999
94.517998 38.363998 -249.46001
94.517998 38.751999 -249.46001
94.518997 39.390999 -249.47
94.549004 40.455002 -250.06
94.547997 40.823002 -250.06
96.787003 -68.918999 -291.20001
95.446999 -58.131001 -264.82001
95.247002 -56.292 -260.88
94.533997 -49.667 -246.82001
94.745003 -45.894001 -250.94
94.567001 -44.250999 -247.42
94.568001 -41.139999 -247.42
94.778999 -39.014999 -251.56
94.778999 -38.819 -251.56
94.780998 -38.57 -251.57001
94.734001 -13.77 -250.45
94.704002 -13.547 -249.86
94.704002 -13.353 -249.86
94.318001 13.769 -241.92999
94.348 15.724 -242.5
94.330002 29.136999 -241.99001
94.445999 32.73 -244.25
94.474998 32.995998 -244.81
94.474998 33.186001 -244.81
94.474998 33.375999 -244.81
94.474998 33.566002 -244.82001
94.445999 33.679001 -244.25
94.445999 33.868999 -244.25
94.531998 34.296001 -245.96001
94.592003 34.705002 -247.12
94.769997 35.976002 -250.64
94.709999 36.368 -249.45
94.709999 36.562 -249.45
94.709999 36.756001 -249.45
94.711998 37.416 -249.46001
94.711998 37.610001 -249.46001
94.711998 37.783001 -249.46001
94.712997 39.585999 -249.47
94.773003 40.919998 -250.64999
94.775002 41.778 -250.66
96.151001 -62.557999 -274.48001
95.686996 -58.494999 -265.48001
95.060997 -51.772999 -253.34
95.32 -52.457001 -258.32999
94.754997 -49.801998 -247.39
94.875999 -49.277 -249.74001
94.968002 -49.414001 -251.53
94.970001 -46.004002 -251.53999
94.790001 -41.237 -248
95.004997 -38.911999 -252.16
95.003998 -38.736 -252.16
95.007004 -38.466 -252.17
94.959999 -13.802 -251.05
94.929001 -13.579 -250.45
94.929001 -13.384 -250.45
94.535004 13.989 -242.49001
94.533997 14.158 -242.49001
94.565002 15.024 -243.06
94.565002 15.213 -243.06
94.536003 15.535 -242.5
94.545998 29.204 -242.55
94.665001 32.806 -244.81
94.694 33.071999 -245.38
94.694 33.263 -245.38
94.665001 33.757 -244.81
94.665001 33.946999 -244.82001
94.754997 34.453999 -246.53999
94.814003 34.786999 -247.7
94.996002 36.062 -251.23
94.903999 36.950001 -249.45
94.905998 37.977001 -249.46001
94.905998 38.946999 -249.46001
94.905998 39.140999 -249.46001
94.938004 39.679001 -250.06
94.938004 39.874001 -250.06
94.938004 40.068001 -250.06
94.938004 40.262001 -250.06
95.000999 41.876999 -251.25999
95.000999 42.073002 -251.25999
95.030998 42.737999 -251.86
95.030998 42.933998 -251.86
95.061996 43.624001 -252.46001
95.061996 43.82 -252.46001
95.063004 44.271 -252.47
95.063004 44.466999 -252.47
95.063004 44.662998 -252.47
95.064003 44.859001 -252.47
95.064003 45.251999 -252.47
95.450996 -56.959 -257.04999
95.720001 -56.570999 -262.17999
95.289001 -51.896999 -253.95
95.551003 -52.66 -258.95001
94.976997 -49.918999 -247.97
95.195 -49.532001 -252.13
95.071999 -48.647999 -249.75
95.013 -41.334 -248.58
94.982002 -40.683998 -247.99001
95.203003 -38.276001 -252.17
95.234001 -37.969002 -252.78
95.234001 -37.771999 -252.78
95.234001 -37.576 -252.77
95.233002 -37.400002 -252.77
95.233002 -37.202999 -252.77
95.233002 -37.007 -252.77
95.178001 -27.596001 -251.60001
95.178001 -26.813999 -251.60001
95.185997 -14.031 -251.64
95.185997 -13.835 -251.64
95.154999 -13.611 -251.03999
95.154999 -13.416 -251.03999
94.751999 14.191 -243.05
94.751999 14.38 -243.05
94.751999 14.569 -243.05
94.783997 15.059 -243.62
94.764 29.271 -243.11
94.885002 32.902 -245.39
94.915001 33.148998 -245.96001
94.885002 34.026001 -245.38
94.976997 34.534 -247.12
95.037003 34.868999 -248.28
95.222 36.147999 -251.83
95.258003 44.016998 -252.46001
95.291 45.556999 -253.07001
95.683998 -57.104 -257.67001
96.028 -57.842999 -264.14001
95.819 -55.596001 -260.22
95.786003 -52.790001 -259.59
95.786003 -52.588001 -259.59
95.200996 -50.035999 -248.56
95.620003 -50.932999 -256.42999
95.325996 -48.945999 -250.92
95.205002 -40.779999 -248.58
95.461998 -36.898998 -253.38
95.464996 -36.233002 -253.39
95.466003 -30.257999 -253.39999
95.468002 -30.006001 -253.41
95.435997 -29.546 -252.8
95.403 -29.089001 -252.19
95.403 -28.500999 -252.19
95.402 -28.325001 -252.19
95.402 -28.129 -252.19
95.403999 -26.507 -252.2
95.405998 -24.296 -252.21001
95.412003 -16.08 -252.24001
95.411003 -15.1 -252.24001
95.380997 -13.644 -251.64
94.943001 14.833 -243.06
94.977997 21.629 -243.64
94.983002 29.339001 -243.67
95.106003 32.978001 -245.96001
95.136002 33.227001 -246.53
95.136002 33.417999 -246.53
95.199997 34.615002 -247.7
95.261002 34.951 -248.86
95.449997 36.234001 -252.44
95.358002 41.117001 -250.64999
95.358002 41.312 -250.64999
95.554001 46.821999 -254.3
95.586998 47.330002 -254.91
95.654999 52.408001 -256.16
95.654999 52.606998 -256.16
95.654999 53.203999 -256.17001
95.917999 -57.243 -258.29999
95.952003 -56.777 -258.94
96.056 -55.733002 -260.87
96.091003 -55.254002 -261.51001
96.022003 -52.919998 -260.23001
96.022003 -52.717999 -260.23001
95.426003 -50.154999 -249.14
95.887001 -51.576 -257.69
95.887001 -51.375 -257.69
95.553001 -49.062 -251.52
95.521004 -48.757 -250.92
95.365997 -40.117001 -247.99001
95.365997 -39.924999 -247.99001
95.369003 -39.676998 -248
95.658997 -36.708 -253.37
95.660004 -35.667999 -253.38
95.660004 -35.472 -253.38
95.660004 -35.275002 -253.38
95.663002 -30.459999 -253.39999
95.695999 -30.330999 -254.00999
95.695 -30.153999 -254
95.665001 -29.617001 -253.41
95.632004 -29.355 -252.8
95.632004 -29.158001 -252.8
95.598999 -28.898001 -252.19
95.598999 -28.702 -252.19
95.569 -27.41 -251.60001
95.569 -27.215 -251.60001
95.599998 -25.923 -252.2
95.599998 -25.728001 -252.2
95.602997 -25.455999 -252.21001
95.636002 -23.316 -252.82001
95.636002 -23.120001 -252.82001
95.639999 -16.315001 -252.84
95.639999 -16.118 -252.84
95.609001 -14.852 -252.24001
95.609001 -14.656 -252.24001
95.202003 29.407 -244.23
95.328003 33.055 -246.53
95.359001 33.304001 -247.11
95.359001 33.495998 -247.11
95.424004 34.696999 -248.28
95.486 35.033001 -249.45
95.486 35.227001 -249.45
95.679001 36.320999 -253.03999
95.584 41.41 -251.25
95.717003 46.237999 -253.67999
95.887001 52.535 -256.79001
95.887001 53.333 -256.79001
95.853996 53.404999 -256.17001
96.153 -57.389999 -258.94
96.188004 -56.922001 -259.57001
96.293999 -55.870998 -261.51001
96.330002 -55.391998 -262.16
95.982002 -52.275002 -255.8
96.260002 -53.050999 -260.87
96.260002 -52.848 -260.87
96.223 -52.542999 -260.22
95.652 -50.272999 -249.73
96.121002 -51.702 -258.32001
95.719002 -45.73 -250.92999
95.859001 -34.043999 -253.39
95.859001 -33.847 -253.39
95.859001 -33.256001 -253.39
95.858002 -33.080002 -253.39
95.860001 -31.448999 -253.39999
95.892998 -30.731001 -254.00999
95.892998 -30.533001 -254.00999
95.926003 -30.403999 -254.62
95.926003 -30.226 -254.62
95.795998 -26.32 -252.19
95.795998 -26.124001 -252.19
95.797997 -24.108999 -252.2
95.865997 -23.176001 -253.42999
95.864998 -22.408001 -253.42
95.832001 -21.77 -252.81
95.867996 -21.150999 -253.44
95.866997 -20.187 -253.42999
95.866997 -19.99 -253.42999
95.834999 -17.552999 -252.83
95.803001 -15.696 -252.23
95.803001 -15.5 -252.23
95.803001 -15.304 -252.23
95.418999 21.368 -244.77
95.422997 29.475 -244.8
95.552002 33.132999 -247.11
95.583 33.382 -247.69
95.583 33.575001 -247.69
95.583 33.766998 -247.69
95.583 33.959999 -247.69
95.551003 34.264999 -247.11
95.648003 34.778999 -248.87
95.711998 35.116001 -250.03999
95.711998 35.311001 -250.03999
95.907997 36.408001 -253.64999
95.847 42.667999 -252.46001
96.015999 48.813999 -255.53
96.017998 49.092999 -255.53999
96.017998 49.27 -255.53999
96.052002 49.985001 -256.16
96.121002 53.463001 -257.41
96.086998 53.535 -256.79001
96.389 -57.536999 -259.57001
96.425003 -57.062 -260.20999
96.532997 -56.009998 -262.16
96.214996 -52.402 -256.42001
96.460999 -52.673 -260.85999
96.013 -48.261002 -252.73
96.012001 -48.064999 -252.73
95.946999 -45.839001 -251.53
96.052002 -36.325001 -253.37
96.054001 -36.073002 -253.38
96.053001 -34.320999 -253.38
96.088997 -33.159 -254
96.124001 -30.805 -254.62
96.124001 -30.607 -254.62
96.026001 -23.598 -252.8
96.028999 -22.933001 -252.82001
96.028999 -22.736 -252.82001
96.098 -21.025 -254.03999
96.098 -20.827 -254.03999
96.064003 -20.584999 -253.42999
96.064003 -20.388 -253.42999
96.028999 -19.577999 -252.82001
96.030998 -17.361 -252.83
96.033997 -16.892 -252.84
96.000999 -14.272 -252.24001
95.639999 21.417999 -245.34
95.644997 29.351999 -245.37
95.806999 33.460999 -248.27
95.806999 33.653999 -248.27
95.806999 33.847 -248.27
95.806999 34.040001 -248.27
95.775002 34.153 -247.69
95.874001 34.667 -249.45
95.874001 34.861 -249.45
95.939003 35.200001 -250.64
95.939003 35.394001 -250.64
96.139 36.495998 -254.25999
96.112 45.276001 -253.67999
96.181 47.532001 -254.91
96.181 47.708 -254.91
96.181 48.303001 -254.91
96.250999 49.389999 -256.16
96.285004 50.106998 -256.78
96.250999 50.186001 -256.16
96.356003 53.594002 -258.04001
96.253998 53.490002 -256.17999
96.884003 -58.858002 -264.79001
96.663002 -57.209 -260.85001
96.774002 -56.148998 -262.81
96.449997 -52.528999 -257.04001
96.251999 -33.660999 -253.39
96.250999 -32.499001 -253.38
96.250999 -32.303001 -253.38
96.250999 -32.105999 -253.38
96.250999 -31.909 -253.38
96.252998 -31.657 -253.39
96.252998 -31.263 -253.39
96.260002 -22.791 -253.42
96.223999 -21.975 -252.81
96.191002 -19.148001 -252.21001
96.230003 -16.698999 -252.84
95.862999 21.468 -245.92
95.866997 29.421 -245.94
96.032997 33.540001 -248.85001
96.032997 33.733002 -248.85001
96.032997 33.926998 -248.85001
96.032997 34.119999 -248.85001
96 34.233002 -248.27
96.100998 34.943001 -250.03999
96.167999 35.283001 -251.23
96.167999 35.479 -251.23
96.371002 36.584 -254.87
96.371002 36.782001 -254.87
96.414001 48.419998 -255.53
96.414001 48.618 -255.53
96.449997 49.59 -256.16
96.485001 50.307999 -256.78
96.485001 50.507999 -256.78
96.485001 50.707001 -256.78
96.522003 51.487999 -257.42001
96.487 51.764 -256.79001
96.487 51.964001 -256.79001
96.450996 52.813 -256.16
96.450996 53.012001 -256.17001
96.592003 53.724998 -258.67999
96.487999 53.619999 -256.79999
96.594002 54.41 -258.69
96.594002 54.589001 -258.67999
96.594002 54.790001 -258.67999
97.127998 -59.013 -265.45999
96.864998 -57.643002 -260.85001
96.755997 -54.969002 -258.92999
96.791 -54.109001 -259.56
96.831001 -53.554001 -260.22
96.447998 -32.897999 -253.38
96.447998 -32.702 -253.38
96.426003 -16.527 -252.84
96.086998 21.518 -246.49001
96.091003 29.49 -246.50999
96.260002 33.618999 -249.44
96.260002 33.813 -249.44
96.260002 34.007 -249.44
96.260002 34.201 -249.44
96.226997 34.313999 -248.85001
96.330002 35.026001 -250.64
96.397003 35.388 -251.83
96.397003 35.563 -251.83
96.329002 35.59 -250.64
96.605003 36.673 -255.49001
96.605003 36.870998 -255.49001
96.578003 47.138 -254.91
96.577003 47.909 -254.91
96.649002 49.791 -256.16
96.685997 52.942001 -256.79001
96.685997 53.140999 -256.79001
96.831001 54.543999 -259.32001
96.831001 54.723 -259.32001
96.831001 54.924 -259.32001
96.831001 55.125999 -259.32001
96.831001 55.327 -259.32001
98.365997 -66.615997 -283.32001
97.103996 -57.792 -261.48999
97.032997 -53.763 -260.22
97.07 -53.484001 -260.85999
96.611 -29.652 -252.78
96.316002 29.559 -247.09
96.487999 33.699001 -250.03
96.487999 33.893002 -250.03
96.487999 34.087002 -250.03
96.487999 34.282001 -250.03
96.454002 34.395 -249.44
96.627998 35.473 -252.44
96.626999 35.647999 -252.42999
96.557999 35.674999 -251.23
96.838997 36.762001 -256.10999
96.838997 36.960999 -256.10999
96.810997 47.252998 -255.53
96.810997 48.025002 -255.53
96.884003 50.91 -256.78
96.886002 51.168999 -256.79001
96.886002 52.367001 -256.79001
96.921997 53.070999 -257.41
96.921997 53.271 -257.41
96.959999 53.882 -258.04999
97.069 55.262001 -259.95999
97.069 55.464001 -259.95999
97.031998 55.530998 -259.32001
97.859001 -61.279999 -270.92001
97.5 -59.324001 -264.78
97.273003 -53.896 -260.85999
96.542 29.628 -247.67
96.717003 33.778999 -250.63
96.717003 33.973 -250.63
96.717003 34.167999 -250.63
96.681999 34.476002 -250.03
96.859001 35.557999 -253.03999
96.859001 35.734001 -253.03999
96.788002 35.759998 -251.83
97.073997 36.851002 -256.73001
97.073997 37.050999 -256.73001
97.122002 52.293999 -257.42001
97.122002 52.493999 -257.42001
97.157997 53.200001 -258.04001
97.157997 53.401001 -258.04001
97.196999 54.014 -258.69
97.196999 54.215 -258.69
97.271004 55.667999 -259.95999
97.271004 55.869999 -259.95999
97.271004 56.071999 -259.95999
97.434998 -55.854 -260.20999
96.764 21.67 -248.23
96.768997 29.698 -248.25
96.946999 33.859001 -251.22
96.946999 34.054001 -251.22
96.946999 34.249001 -251.22
96.914001 34.638 -250.64
97.092003 35.643002 -253.64999
97.092003 35.82 -253.64999
97.019997 35.845001 -252.42999
97.310997 37.140999 -257.35999
97.310997 37.341 -257.35999
97.360001 52.422001 -258.04001
97.360001 52.622002 -258.04001
97.396004 53.331001 -258.67001
97.435997 54.146 -259.32001
97.435997 54.348 -259.32001
97.511002 56.007999 -260.60001
97.513 56.292 -260.60999
97.513 56.494999 -260.60999
97.551003 57.422001 -261.25
97.630997 61.678001 -262.57001
97.630997 61.882 -262.57001
99.641998 -69.198997 -293.57999
96.992996 21.721001 -248.81
97.031998 29.643999 -249.42
96.997002 29.768 -248.83
97.179001 33.959999 -251.82001
97.178001 34.134998 -251.82001
97.178001 34.331001 -251.82001
97.178001 34.527 -251.82001
97.144997 34.720001 -251.23
97.325996 35.729 -254.25999
97.324997 35.905998 -254.25999
97.251999 35.931 -253.03999
97.549004 37.231998 -257.98999
97.549004 37.431999 -257.98999
97.598 52.549999 -258.67999
97.598 52.750999 -258.67999
97.636002 53.462002 -259.31
97.676003 54.279999 -259.95999
97.676003 54.481998 -259.95999
97.754997 56.634998 -261.25
97.716003 56.880001 -260.60999
97.792999 57.564999 -261.89999
97.792999 57.768002 -261.89999
97.874001 61.445 -263.22
97.834999 61.499001 -262.57001
97.874001 61.831001 -263.22
97.874001 62.035999 -263.22
97.222 21.771999 -249.39999
97.262001 29.714001 -250.00999
97.225998 29.837999 -249.42
97.411003 34.041 -252.42999
97.410004 34.216999 -252.42
97.410004 34.412998 -252.42
97.411003 34.609001 -252.42
97.375999 34.803001 -251.83
97.560997 35.814999 -254.87
97.559998 35.992001 -254.87
97.486 36.018002 -253.64999
97.788002 37.323002 -258.62
97.788002 37.523998 -258.62
97.837997 52.679001 -259.31
97.837997 52.881001 -259.31
97.875999 53.592999 -259.95001
97.917 54.414001 -260.60001
97.957001 57.021 -261.25
97.957001 57.223999 -261.25
98.036003 57.708 -262.54999
98.036003 57.911999 -262.54999
97.957001 57.833 -261.25
98.077003 58.931999 -263.20999
98.116997 59.487 -263.87
97.998001 59.866001 -261.91
97.998001 60.047001 -261.91
98.079002 61.243 -263.22
98.079002 61.652 -263.22
98.039001 62.091 -262.57001
98.039001 62.294998 -262.57001
97.452003 21.823999 -249.99001
97.492996 29.785 -250.61
97.643997 34.123001 -253.03
97.643997 34.299 -253.03
97.643997 34.495998 -253.03
97.609001 34.886002 -252.42999
97.796997 35.902 -255.49001
97.795998 36.080002 -255.49001
97.721001 36.104 -254.25999
98.028 37.414001 -259.25
98.028 37.616001 -259.25
98.068001 39.765999 -259.89999
98.078003 52.808998 -259.95001
98.078003 53.011002 -259.95001
98.119003 53.807999 -260.60001
98.121002 56.681999 -260.60999
98.199997 57.366001 -261.89999
98.279999 58.056 -263.20999
98.199997 57.976002 -261.89999
98.199997 58.18 -261.89999
98.199997 58.382999 -261.89999
98.321999 59.080002 -263.87
98.202003 59.257999 -261.91
98.202003 59.462002 -261.91
98.202003 59.665001 -261.91
98.241997 60.014999 -262.56
98.241997 60.196999 -262.56
98.241997 60.401001 -262.56
98.282997 62.245998 -263.22
98.282997 62.450001 -263.22
98.242996 62.501999 -262.57001
98.242996 62.706001 -262.57001
99.356003 -65.319 -278.04999
97.682999 21.875999 -250.58
97.681999 22.049999 -250.58
97.724998 29.856001 -251.2
97.878998 34.205002 -253.64
97.877998 34.381001 -253.64
97.877998 34.578999 -253.64
97.957001 35.618 -254.87
98.033997 35.988998 -256.10999
98.032997 36.167 -256.10999
97.957001 36.191002 -254.87
98.268997 37.506001 -259.89001
98.268997 37.708 -259.89001
98.309998 39.863998 -260.54001
98.237999 47.949001 -259.29999
98.32 52.938999 -260.59
98.32 53.141998 -260.59
98.363998 56.844002 -261.25
98.526001 58.201 -263.85999
98.444 58.119999 -262.54999
98.445 58.325001 -262.54999
98.446999 58.612 -262.56
98.569 59.228001 -264.53
98.445999 59.404999 -262.56
98.445999 59.609001 -262.56
98.445999 59.813999 -262.56
98.487 60.165001 -263.20999
98.486 60.347 -263.20999
98.486 60.550999 -263.20999
98.487999 61.043999 -263.22
98.487999 62.658001 -263.22
98.487999 62.862 -263.22
98.487999 63.067001 -263.22
98.530998 63.509998 -263.89001
98.530998 63.693001 -263.89001
98.571999 64.261002 -264.54999
97.915001 22.103001 -251.17999
97.958 29.927 -251.8
98.114998 34.286999 -254.25
98.113998 34.464001 -254.25
98.113998 34.661999 -254.25
98.078003 34.856998 -253.64999
98.194 35.506001 -255.49001
98.194 35.703999 -255.49001
98.272003 36.077 -256.73001
98.272003 36.255001 -256.73001
98.194 36.278999 -255.49001
98.511002 37.598999 -260.53
98.511002 37.800999 -260.53
98.553001 39.962002 -261.17999
98.478996 48.067001 -259.92999
98.564003 53.07 -261.23999
98.564003 53.272999 -261.23999
98.608002 56.985001 -261.89999
98.773003 58.347 -264.51999
98.690002 58.470001 -263.20999
98.692001 58.757999 -263.22
98.816002 59.375999 -265.20001
98.691002 59.553001 -263.20999
98.691002 59.757999 -263.20999
98.692001 59.963001 -263.20999
98.733002 60.314999 -263.87
98.691002 60.757999 -263.20999
98.735001 61.195999 -263.88
98.734001 62.813999 -263.88
98.734001 63.019001 -263.88
98.734001 63.224998 -263.88
98.778 63.669998 -264.54999
98.777 63.852001 -264.54999
98.777 64.057999 -264.54999
98.819 64.421997 -265.20999
98.819 64.627998 -265.20999
98.148003 22.156 -251.78
98.192001 29.802 -252.39999
98.192001 29.997999 -252.39999
98.350998 34.369999 -254.86
98.350998 34.547001 -254.86
98.350998 34.744999 -254.86
98.314003 34.939999 -254.25999
98.314003 35.138 -254.25999
98.431999 35.591999 -256.10999
98.431999 35.791 -256.10999
98.512001 36.165001 -257.35999
98.512001 36.365002 -257.35999
98.431999 36.367001 -256.10999
98.754997 37.692001 -261.17999
98.754997 37.895 -261.17999
98.797997 40.061001 -261.82999
98.722 48.185001 -260.57001
98.807999 53.202 -261.88
98.807999 53.404999 -261.88
99.017998 54.272999 -265.17001
99.018997 54.952 -265.17999
98.852997 57.126999 -262.54999
99.021004 58.286999 -265.19
99.021004 58.493999 -265.19
98.935997 58.616001 -263.85999
98.938004 58.904999 -263.87
98.938004 59.702 -263.87
98.938004 59.907001 -263.87
98.938004 60.112 -263.87
98.980003 60.466 -264.53
98.940002 60.993999 -263.88
98.982002 63.176998 -264.54001
98.984001 63.466999 -264.54999
99.026001 63.828999 -265.20999
99.026001 64.036003 -265.20999
99.025002 64.219002 -265.20999
99.068001 64.584 -265.88
99.068001 64.791 -265.88
99.110001 65.963997 -266.54999
98.383003 22.405001 -252.38
98.421997 22.851999 -252.98
98.427002 29.874001 -253.00999
98.427002 30.07 -253.00999
98.588997 34.631001 -255.48
98.588997 34.830002 -255.48
98.551003 35.025002 -254.87
98.551003 35.223 -254.87
98.670998 35.678001 -256.73001
98.671997 35.877998 -256.73001
98.752998 36.252998 -257.98999
98.752998 36.452999 -257.98999
98.670998 36.455002 -256.73001
99 37.785 -261.82001
99 37.988998 -261.82001
99.043999 40.182999 -262.48999
99.003998 40.348 -261.84
98.967003 48.304001 -261.22
99.054001 53.334 -262.54001
99.054001 53.537998 -262.54001
99.266998 54.409 -265.84
99.268997 55.09 -265.85001
99.099998 57.269001 -263.20999
99.269997 58.433998 -265.85999
99.269997 58.640999 -265.85999
99.183998 58.556999 -264.51999
99.185997 58.846001 -264.53
99.185997 59.051998 -264.54001
99.185997 59.852001 -264.53
99.185997 60.056999 -264.53
99.185997 60.263 -264.53
99.228996 60.618 -265.20001
99.186996 61.146 -264.54001
99.318001 64.954002 -266.54999
99.232002 64.839996 -265.20999
99.275002 65.414001 -265.88
99.361 66.130997 -267.22
99.362999 66.422997 -267.23001
99.362999 66.630997 -267.23001
98.657997 23.104 -253.59
98.664001 29.945 -253.62
98.664001 30.143 -253.62
98.828003 34.715 -256.10001
98.828003 34.914001 -256.10001
98.790001 35.110001 -255.49001
98.790001 35.307999 -255.49001
98.912003 35.764999 -257.35999
98.912003 35.965 -257.35999
98.911003 36.543999 -257.35001
99.246002 37.879002 -262.47
99.25 40.448002 -262.48999
99.249001 42.466 -262.48999
99.251999 42.752998 -262.5
99.293999 44.268002 -263.16
99.293999 44.676998 -263.16
99.338997 45.076 -263.82999
99.338997 45.258999 -263.82001
99.338997 45.464001 -263.82001
99.211998 48.424 -261.87
99.43 53.063 -265.17001
99.43 53.245998 -265.17001
99.387001 53.526001 -264.51001
99.301003 53.466999 -263.19
99.301003 53.672001 -263.19
99.519997 54.631001 -266.51999
99.346001 54.298 -263.85999
99.518997 55.229 -266.51999
99.474998 55.299 -265.85001
99.347 57.411999 -263.87
99.521004 58.582001 -266.53
99.521004 58.789001 -266.53
99.432999 58.703999 -265.19
99.434998 58.993999 -265.20001
99.434998 59.200001 -265.20001
99.434998 60.001999 -265.20001
99.434998 60.208 -265.20001
99.434998 60.414001 -265.20001
99.478996 60.771 -265.87
99.568001 62.173 -267.22
99.612 62.535999 -267.89999
99.482002 65.002998 -265.88
99.482002 65.209999 -265.88
99.525002 65.579002 -266.54999
99.525002 65.786003 -266.54999
99.570999 66.241997 -267.23999
99.614998 66.592003 -267.91
99.614998 66.800003 -267.91
99.614998 67.425003 -267.91
98.896004 23.16 -254.2
98.901001 30.018 -254.23
98.901001 30.215 -254.23
99.068001 34.799 -256.72
99.068001 34.999001 -256.72
99.028999 35.195 -256.10999
99.028999 35.394001 -256.10999
99.153999 35.853001 -257.98999
99.153999 36.053001 -257.98999
99.495003 39.261002 -263.14001
99.454002 40.653 -262.48999
99.454002 41.264999 -262.48999
99.454002 41.469002 -262.48999
99.498001 43.655998 -263.16
99.499001 43.860001 -263.16
99.499001 44.064999 -263.16
99.542 44.379002 -263.81
99.542 44.789001 -263.81
99.587997 45.188999 -264.48999
99.586998 45.372002 -264.48001
99.587997 45.577999 -264.48001
99.587997 45.783001 -264.48001
99.459 48.544998 -262.51999
99.677002 49.355 -265.82001
99.679001 50.058998 -265.82999
99.681 53.195999 -265.84
99.681 53.403 -265.84
99.636002 53.453999 -265.17001
99.636002 53.66 -265.17001
99.549004 53.601002 -263.85001
99.549004 53.806 -263.85001
99.771004 54.769001 -267.20001
99.595001 54.433998 -264.51999
99.595001 54.639 -264.51999
99.771004 55.368999 -267.19
99.725998 55.438 -266.51999
99.638 55.369999 -265.17999
99.638 55.576 -265.17999
99.596001 57.556 -264.53
99.772003 58.73 -267.20001
99.772003 58.938 -267.20001
99.685997 58.936001 -265.87
99.685997 59.143002 -265.87
99.685997 59.348999 -265.87
99.684998 60.153 -265.85999
99.684998 60.360001 -265.85999
99.684998 60.566002 -265.87
99.730003 60.924 -266.54001
99.820999 62.331001 -267.89999
99.865997 62.695 -268.57999
99.733002 65.167 -266.54999
99.733002 65.374001 -266.54999
99.777 65.745003 -267.23001
99.777 65.952003 -267.23001
99.823997 66.410004 -267.91
99.869003 66.761002 -268.59
99.869003 66.970001 -268.59
99.778999 66.845001 -267.23001
99.869003 67.596001 -268.59
99.135002 23.216 -254.81
99.139999 30.09 -254.84
99.139999 30.288 -254.84
99.311996 35.166 -257.35999
99.269997 35.279999 -256.73001
99.269997 35.48 -256.73001
99.396004 35.939999 -258.62
99.396004 36.140999 -258.62
99.657997 41.674 -262.48999
99.656998 41.855999 -262.48999
99.656998 42.060001 -262.48999
99.656998 42.264 -262.48999
99.837997 45.692001 -265.14999
99.837997 45.897999 -265.14999
99.792999 45.990002 -264.48001
99.707001 48.666 -263.17001
99.929001 49.48 -266.48999
99.931 50.185001 -266.51001
99.797997 52.729 -264.51001
99.931999 53.330002 -266.51001
99.931999 53.537998 -266.51001
99.887001 53.588001 -265.84
99.887001 53.794998 -265.84
100.02 54.700001 -267.87
100.02 54.908001 -267.87
99.845001 54.57 -265.17999
99.845001 54.776001 -265.17999
99.889 55.508999 -265.85001
99.889 55.716 -265.85001
99.846001 57.701 -265.19
100.03 58.879002 -267.88
100.03 59.087002 -267.88
99.936996 59.084999 -266.54001
99.936996 59.292 -266.54001
99.936996 59.499001 -266.54001
99.936996 60.305 -266.54001
99.936996 60.512001 -266.54001
99.936996 60.719002 -266.54001
99.982002 61.077999 -267.20999
99.982002 61.285999 -267.20999
99.984001 61.970001 -267.22
100.07 62.488998 -268.57999
100.12 62.855 -269.26001
99.985001 63.694 -267.23001
99.985001 63.901001 -267.23001
100.08 65.449997 -268.57999
99.985001 65.332001 -267.23001
99.985001 65.540001 -267.23001
100.03 65.912003 -267.89999
100.12 66.536003 -269.28
100.08 66.579002 -268.60001
100.12 66.931 -269.28
100.12 67.140999 -269.28
100.03 67.014 -267.91
100.03 67.223 -267.91
100.12 67.768997 -269.28
101.22 -66.596001 -283.26999
99.333 23.413 -254.81
99.337997 29.912001 -254.84
99.379997 30.163 -255.46001
99.555 35.251999 -257.98001
99.512001 35.366001 -257.35999
99.512001 35.566002 -257.35999
99.904999 38.262001 -263.14001
99.903999 39.466999 -263.14001
99.903999 39.672001 -263.14001
99.903999 39.875999 -263.14001
99.862 40.859001 -262.48999
99.862 41.063 -262.48999
99.907997 43.474998 -263.16
99.907997 44.476002 -263.16
100.04 46.105 -265.14999
100.04 46.311001 -265.14999
100.09 46.632999 -265.82001
100.09 46.84 -265.82001
100.14 48.882 -266.5
100.14 49.067001 -266.48999
99.956001 48.786999 -263.82999
100.18 50.312 -267.17999
100.18 52.219002 -267.19
100.05 52.655998 -265.17001
100.05 52.862 -265.17001
100.19 53.465 -267.19
100.19 53.673 -267.19
100.14 53.723999 -266.51001
100.14 53.931 -266.51001
100.1 54.914001 -265.85001
100.14 55.648998 -266.51999
100.14 55.856998 -266.51999
100.28 56.485001 -268.54999
100.1 57.846001 -265.85999
100.28 59.028999 -268.56
100.19 59.234001 -267.20999
100.19 59.442001 -267.20999
100.19 59.650002 -267.20999
100.19 60.457001 -267.20999
100.19 60.665001 -267.20999
100.19 60.873001 -267.20999
100.24 61.233002 -267.89001
100.24 61.526001 -267.89999
100.19 61.581001 -267.22
100.19 61.764999 -267.22
100.24 62.127998 -267.89999
100.33 62.647999 -269.26001
100.38 63.015999 -269.95001
100.38 63.435001 -269.95001
100.38 63.645 -269.95001
100.33 65.222 -269.26999
100.33 65.406998 -269.26999
100.33 65.616997 -269.26999
100.24 65.498001 -267.89999
100.24 65.706001 -267.89999
100.28 66.079002 -268.59
100.38 66.706001 -269.97
100.33 66.748001 -269.28
100.38 67.125999 -269.97
100.38 67.311996 -269.97
100.29 67.184998 -268.59
100.29 67.392998 -268.59
100.38 67.942001 -269.97
100.29 67.810997 -268.59
100.38 68.361 -269.97
99.572998 23.667999 -255.42999
99.572998 23.867001 -255.42999
99.616997 25.955999 -256.06
99.579002 29.587 -255.46001
99.579002 29.785999 -255.46001
99.579002 29.983999 -255.46001
99.754997 35.452999 -257.98001
99.754997 35.653 -257.98001
100.15 38.358002 -263.79999
100.3 46.221001 -265.81
100.3 46.428001 -265.82001
100.34 46.958 -266.48999
100.34 47.165001 -266.48999
100.34 47.349998 -266.48001
100.34 47.848 -266.5
100.34 48.055 -266.5
100.34 48.262001 -266.5
100.39 49.006001 -267.17001
100.39 49.191002 -267.17001
100.21 48.909 -264.48999
100.3 49.650002 -265.82999
100.39 50.914001 -267.17999
100.39 51.120998 -267.17999
100.39 51.328999 -267.17999
100.39 51.536999 -267.17999
100.3 52.787998 -265.84
100.3 52.994999 -265.84
100.44 53.601002 -267.85999
100.44 53.808998 -267.85999
100.39 53.860001 -267.17999
100.39 54.067001 -267.17999
100.53 54.979 -269.23999
100.53 55.188 -269.23999
100.35 54.846001 -266.51999
100.35 55.053001 -266.51999
100.53 55.816002 -269.23999
100.39 55.790001 -267.19
100.39 55.998001 -267.19
100.53 56.629002 -269.23999
100.53 56.839001 -269.23999
100.35 57.992001 -266.53
100.54 59.179001 -269.23999
100.44 59.384998 -267.89001
100.44 59.592999 -267.89001
100.44 59.800999 -267.89001
100.44 60.611 -267.89001
100.44 60.819 -267.89001
100.44 61.027 -267.89001
100.49 61.389 -268.57001
100.49 61.682999 -268.57999
100.45 61.737 -267.89999
100.45 61.922001 -267.89999
100.49 62.285999 -268.57999
100.59 62.808998 -269.95001
100.63 63.176998 -270.64001
100.59 63.228001 -269.95001
100.63 63.598 -270.64001
100.63 63.807999 -270.64001
100.59 65.388 -269.95999
100.59 65.574997 -269.95999
100.59 65.783997 -269.95999
100.49 65.664001 -268.59
100.49 65.873001 -268.59
100.54 66.333 -269.28
100.64 66.876999 -270.66
100.59 66.918999 -269.97
100.64 67.297997 -270.66
100.54 67.356003 -269.28
100.54 67.565002 -269.28
100.64 68.115997 -270.66
100.54 67.984001 -269.28
100.64 68.537003 -270.66
99.816002 24.184 -256.06
99.816002 24.382999 -256.06
99.817001 24.781 -256.06
99.817001 24.98 -256.06
99.816002 26.153999 -256.06
99.862 27.097 -256.69
99.861 27.275999 -256.69
99.861 27.875 -256.69
99.818001 28.205 -256.07001
99.82 29.062 -256.07999
99.82 29.261 -256.07999
100.6 47.969002 -267.17001
100.6 48.176998 -267.17001
100.6 48.384998 -267.17001
100.55 48.471001 -266.5
100.55 48.678001 -266.5
100.46 49.032001 -265.14999
100.55 49.775002 -266.5
100.55 50.396999 -266.51001
100.65 51.042999 -267.85001
100.65 51.250999 -267.85001
100.65 51.459 -267.85001
100.65 51.667 -267.85999
100.65 52.376999 -267.87
100.65 52.562 -267.85999
100.65 52.77 -267.85999
100.55 52.921001 -266.51001
100.55 53.129002 -266.51001
100.69 53.737 -268.54999
100.69 53.945999 -268.54999
100.65 53.995998 -267.85999
100.65 54.203999 -267.85999
100.6 54.984001 -267.20001
100.6 55.192001 -267.20001
100.79 55.958 -269.92999
100.74 56.004002 -269.23999
100.65 55.931999 -267.87
100.65 56.139999 -267.87
100.79 56.773998 -269.92999
100.79 56.984001 -269.92999
100.79 57.278999 -269.94
100.79 57.488998 -269.94
100.6 58.139 -267.20001
100.79 59.330002 -269.92999
100.7 59.327 -268.57001
100.7 59.535999 -268.57001
100.7 59.743999 -268.57001
100.7 59.952999 -268.57001
100.7 60.764999 -268.57001
100.7 60.973999 -268.57001
100.7 61.181999 -268.57001
100.75 61.630001 -269.26001
100.75 61.84 -269.26001
100.7 61.894001 -268.57999
100.7 62.103001 -268.57999
100.75 62.444 -269.26001
100.84 62.969002 -270.64001
100.89 63.34 -271.34
100.84 63.389999 -270.64001
100.89 63.761002 -271.34
100.89 63.972 -271.34
100.8 65.181 -269.95999
100.85 65.556 -270.64999
100.85 65.765999 -270.64999
100.85 65.953003 -270.64999
100.75 65.832001 -269.26999
100.75 66.041 -269.26999
100.8 66.501999 -269.97
100.9 67.049004 -271.35999
100.85 67.091003 -270.66
100.8 67.528 -269.97
100.8 67.737999 -269.97
100.8 68.157997 -269.97
100.9 68.712997 -271.35001
100.85 68.835999 -270.67001
100.99 70.396004 -272.76001
100.02 25.179001 -256.06
100.02 25.378 -256.06
100.02 26.434 -256.07001
100.02 26.832001 -256.07001
100.02 27.409 -256.07001
100.02 27.608 -256.07001
100.02 28.006001 -256.07001
100.02 28.485001 -256.07999
100.02 28.684 -256.07999
100.81 48.594002 -267.17001
100.71 49.155998 -265.82001
100.71 49.860001 -265.82999
100.81 50.523998 -267.17999
100.81 50.731998 -267.17999
100.9 51.799 -268.54001
100.85 51.876999 -267.85999
100.9 52.509998 -268.54999
100.9 52.695 -268.54999
100.9 52.903999 -268.54999
100.9 53.112999 -268.54999
100.81 53.055 -267.19
100.81 53.263 -267.19
100.95 53.874001 -269.23001
100.95 54.084 -269.23001
100.9 54.157001 -268.54999
100.9 54.341999 -268.54001
100.86 55.124001 -267.87
100.86 55.332001 -267.87
101.05 56.102001 -270.62
101 56.146999 -269.92999
100.9 56.074001 -268.54999
100.9 56.283001 -268.54999
101.05 56.919998 -270.62
101.05 57.130001 -270.62
101.05 57.425999 -270.63
101.05 57.636002 -270.63
101 58.516998 -269.94
100.86 58.285999 -267.88
100.95 58.998001 -269.25
100.96 59.478001 -269.26001
100.96 59.687 -269.26001
100.96 59.896999 -269.26001
100.96 60.105999 -269.26001
100.96 60.919998 -269.25
100.96 61.129002 -269.25
100.96 61.338001 -269.25
101.01 61.787998 -269.95001
101.01 61.998001 -269.95001
100.96 62.051998 -269.26999
100.96 62.261002 -269.26999
101.01 62.604 -269.95001
101.1 63.131001 -271.34
101.15 63.502998 -272.04001
101.1 63.553001 -271.34
101.15 63.925999 -272.04001
101.15 64.137001 -272.04001
101.06 64.110001 -270.64999
101.01 64.135002 -269.95999
101.01 64.345001 -269.95999
101.01 64.555 -269.95999
101.01 64.764 -269.95999
101.06 65.138 -270.64999
101.06 65.348 -270.64999
101.1 65.723999 -271.35001
101.1 65.934998 -271.35001
101.1 66.123001 -271.35001
101.06 66.461998 -270.66
101.06 66.672997 -270.66
101.16 67.222 -272.04999
101.16 67.644997 -272.06
101.15 67.832001 -272.04999
101.15 68.467003 -272.04999
101.06 68.332001 -270.66
101.15 68.889999 -272.04999
101.11 69.013 -271.35999
101.11 69.411003 -271.35999
101.26 70.578003 -273.47
100.26 27.475 -256.69
101.11 52.008999 -268.54001
101.16 52.644001 -269.23001
101.16 52.830002 -269.23001
101.16 53.039001 -269.23001
101.16 53.248001 -269.23001
101.06 53.189999 -267.85999
101.06 53.397999 -267.85999
101.16 54.294998 -269.23001
101.16 54.480999 -269.23001
101.11 55.264 -268.54999
101.11 55.473 -268.56
101.26 56.291 -270.62
101.16 56.216999 -269.23999
101.16 56.425999 -269.23999
101.31 57.066002 -271.31
101.31 57.362 -271.32001
101.31 57.573002 -271.32001
101.31 57.784 -271.32001
101.26 57.848999 -270.63
101.26 58.035999 -270.63
101.26 58.245998 -270.63
101.26 58.456001 -270.63
101.26 58.667 -270.63
101.12 58.433998 -268.56
101.21 58.938 -269.94
101.21 59.147999 -269.94
101.21 59.630001 -269.94
101.21 59.84 -269.94
101.21 60.049999 -269.94
101.21 60.259998 -269.94
101.21 60.889 -269.94
101.21 61.076 -269.94
101.21 61.285 -269.94
101.22 61.581001 -269.95001
101.27 61.945999 -270.64001
101.27 62.157001 -270.64001
101.22 62.209999 -269.95001
101.22 62.419998 -269.95001
101.26 62.764 -270.64001
101.36 63.293999 -272.04001
101.41 63.667 -272.73999
101.36 63.716999 -272.04001
101.41 64.091003 -272.73999
101.41 64.303001 -272.73999
101.32 64.274002 -271.35001
101.27 64.322998 -270.64999
101.27 64.510002 -270.64999
101.27 64.720001 -270.64999
101.27 64.93 -270.64999
101.27 66.168999 -270.64999
101.42 67.394997 -272.76001
101.42 67.819 -272.76001
101.42 68.030998 -272.76001
101.42 68.643997 -272.76001
101.32 68.508003 -271.35001
101.22 68.459 -269.98001
101.37 69.190002 -272.06
101.37 69.589996 -272.06
101.52 70.761002 -274.17999
101.32 53.325001 -268.54999
101.32 53.534 -268.54999
101.32 54.431 -268.54999
101.32 54.639999 -268.54999
101.37 55.404999 -269.23999
101.37 55.613998 -269.23999
101.42 56.361 -269.92999
101.42 56.57 -269.92999
101.57 57.213001 -272.01001
101.57 57.509998 -272.01999
101.57 57.722 -272.01999
101.57 57.932999 -272.01999
101.52 57.997002 -271.32001
101.52 58.185001 -271.32001
101.52 58.396 -271.32001
101.52 58.605999 -271.32001
101.52 58.817001 -271.32001
101.37 58.583 -269.25
101.47 59.09 -270.63
101.47 59.783001 -270.64001
101.47 59.993 -270.64001
101.47 60.203999 -270.64001
101.47 60.414001 -270.64001
101.47 61.044998 -270.64001
101.47 61.231998 -270.63
101.47 61.442001 -270.63
101.48 61.737999 -270.64001
101.53 62.105 -271.34
101.53 62.316002 -271.34
101.48 62.369999 -270.64999
101.48 62.580002 -270.64999
101.52 62.925999 -271.34
101.63 63.457001 -272.73999
101.68 63.832001 -273.45001
101.68 64.257004 -273.45001
101.68 64.469002 -273.45001
101.53 64.487999 -271.35001
101.53 64.675003 -271.35001
101.53 64.886002 -271.35001
101.53 65.097 -271.35001
101.53 66.425003 -271.35999
101.68 67.57 -273.45999
101.68 67.995003 -273.45999
101.68 68.208 -273.45999
101.58 68.050003 -272.04999
101.58 68.261002 -272.04999
101.58 68.683998 -272.04999
101.48 68.635002 -270.67001
101.63 69.369003 -272.76999
101.63 69.768997 -272.76001
101.78 70.945 -274.89001
101.83 57.870998 -272.73001
101.83 58.083 -272.73001
101.78 58.146999 -272.01999
101.78 58.334 -272.01999
101.78 58.546001 -272.01999
101.78 58.757 -272.01999
101.78 58.969002 -272.01999
101.63 58.733002 -269.94
101.73 59.241001 -271.32001
101.73 59.936001 -271.32999
101.73 60.146999 -271.32999
101.73 60.358002 -271.32999
101.73 60.569 -271.32999
101.73 61.202 -271.32999
101.73 61.389 -271.32999
101.74 61.686001 -271.34
101.74 61.896999 -271.34
101.79 62.264999 -272.04001
101.79 62.477001 -272.04001
101.74 62.529999 -271.34
101.74 62.741001 -271.34
101.79 63.111 -272.04001
101.89 63.622002 -273.45001
101.94 63.997002 -274.16
101.94 64.422997 -274.16
101.79 64.653999 -272.04999
101.89 66.235001 -273.45999
101.89 66.446999 -273.45999
101.79 66.596001 -272.04999
101.94 67.745003 -274.17001
101.89 67.785004 -273.45999
101.94 68.171997 -274.17001
101.94 68.385002 -274.17001
101.84 68.225998 -272.76001
101.84 68.438004 -272.76001
101.94 69 -274.17001
101.94 69.300003 -274.17999
101.74 68.810997 -271.35999
101.89 69.549004 -273.47
101.89 69.973999 -273.47
102.05 71.129997 -275.60999
102.05 58.297001 -272.73001
102.05 58.485001 -272.72
102.05 58.696999 -272.72
102.05 58.909 -272.72
102.05 59.120998 -272.72
101.99 59.394001 -272.01999
102 60.091 -272.03
102 60.301998 -272.03
102 60.514 -272.03
102 60.724998 -272.03
102 61.360001 -272.03
102 61.548 -272.03
102 61.845001 -272.04001
102 62.056999 -272.04001
102.05 62.425999 -272.73999
102.05 62.638 -272.73999
102 62.691002 -272.04001
102 62.902 -272.04001
102.05 63.273998 -272.73999
102.15 63.786999 -274.16
102.15 64.212997 -274.16
102.2 64.591003 -274.87
102.15 66.406998 -274.17001
102.15 66.620003 -274.17001
102.05 66.580002 -272.76001
102.05 66.767998 -272.76001
102.1 67.151001 -273.45999
102.1 67.362999 -273.45999
102.21 67.921997 -274.89001
102.16 67.960999 -274.17001
102.21 68.348999 -274.89001
102.21 68.563004 -274.89001
102.1 68.402 -273.45999
102.1 68.614998 -273.45999
102.21 69.18 -274.89001
102.21 69.480003 -274.89999
102 68.987999 -272.06
102.16 69.728996 -274.17999
102.16 70.154999 -274.17999
102.31 71.316002 -276.32999
103.09 -66.612 -284.76999
102.31 58.848999 -273.42999
102.31 59.062 -273.42999
102.26 60.245998 -272.73001
102.26 60.458 -272.73001
102.26 60.669998 -272.73001
102.26 60.882 -272.73001
102.26 61.518002 -272.73001
102.26 61.73 -272.73001
102.26 62.005001 -272.73999
102.26 62.216999 -272.73999
102.31 62.588001 -273.45001
102.31 62.799999 -273.45001
102.26 62.853001 -272.73999
102.26 63.064999 -272.73999
102.31 63.438 -273.45001
102.42 63.952999 -274.87
102.42 64.379997 -274.87
102.37 64.728996 -274.17001
102.37 64.942001 -274.17001
102.32 65.200996 -273.45999
102.32 65.602997 -273.45001
102.37 65.983002 -274.16
102.37 66.196999 -274.17001
102.42 66.580002 -274.88
102.42 66.792999 -274.88
102.32 66.751999 -273.47
102.32 66.941002 -273.45999
102.37 67.324997 -274.17001
102.37 67.538002 -274.17001
102.48 68.098999 -275.60001
102.42 68.138 -274.89001
102.48 68.527 -275.60001
102.48 68.741997 -275.60001
102.37 68.603996 -274.17001
102.37 68.792999 -274.17001
102.37 69.093002 -274.17999
102.48 69.661003 -275.60999
102.42 69.911003 -274.89999
102.42 70.337997 -274.89999
102.58 71.503998 -277.06
103.72 -68.083 -290.26001
102.52 60.402 -273.44
102.52 60.615002 -273.44
102.52 60.827 -273.44
102.52 61.040001 -273.44
102.52 61.676998 -273.44
102.53 61.976002 -273.45001
102.53 62.165001 -273.45001
102.53 62.377998 -273.45001
102.58 62.75 -274.16
102.58 62.963001 -274.16
102.53 63.015999 -273.45001
102.53 63.228001 -273.45001
102.58 63.603001 -274.16
102.63 64.897003 -274.88
102.63 65.111 -274.88
102.58 65.157997 -274.17001
102.58 65.371002 -274.17001
102.58 65.559998 -274.16
102.58 65.773003 -274.16
102.63 66.154999 -274.88
102.63 66.369003 -274.88
102.69 66.752998 -275.60001
102.69 67.055 -275.60999
102.58 66.926003 -274.17999
102.58 67.139 -274.17999
102.64 67.5 -274.89001
102.64 67.713997 -274.89001
102.69 68.316002 -275.60001
102.64 68.781998 -274.89001
102.64 68.972 -274.89001
102.64 69.273003 -274.89999
102.69 70.093002 -275.60999
102.69 70.522003 -275.60999
102.79 60.771999 -274.14999
102.79 60.985001 -274.14999
102.79 61.198002 -274.14999
102.79 61.837002 -274.14999
102.79 62.137001 -274.16
102.79 62.327 -274.16
102.79 62.540001 -274.16
102.85 62.914001 -274.87
102.85 63.126999 -274.87
102.79 63.179001 -274.16
102.79 63.391998 -274.16
102.85 63.768002 -274.87
103.01 65.186996 -277.04001
102.9 65.066002 -275.60001
102.9 65.280998 -275.60001
102.85 65.327003 -274.88
102.85 65.541 -274.88
102.85 65.731003 -274.88
102.85 65.944 -274.88
102.9 66.328003 -275.60001
102.9 66.542 -275.60001
102.96 66.928001 -276.32001
102.96 67.230003 -276.32999
102.85 67.099998 -274.89001
102.9 67.676003 -275.60001
102.9 67.890999 -275.60001
102.96 68.495003 -276.32999
103.01 70.027 -277.06
102.8 69.526001 -274.17999
102.96 70.276001 -276.32999
102.96 70.706001 -276.32999
103.06 62.084999 -274.87
103.06 62.299 -274.87
103.06 62.488998 -274.87
103.06 62.702999 -274.87
103.11 63.077999 -275.59
103.11 63.292 -275.59
103.06 63.344002 -274.87
103.06 63.556999 -274.87
103.28 65.141998 -277.76999
103.28 65.358002 -277.76999
103.17 65.237 -276.32001
103.17 65.450996 -276.32001
103.12 65.498001 -275.60001
103.12 65.711998 -275.60001
103.12 65.926003 -275.60001
103.12 66.115997 -275.60001
103.17 66.500999 -276.32001
103.17 66.716003 -276.32001
103.23 67.191002 -277.04999
103.23 67.406998 -277.04999
103.12 67.275002 -275.60999
103.17 67.852997 -276.32999
103.17 68.068001 -276.32999
103.28 68.636002 -277.78
103.23 68.674004 -277.04999
103.28 69.068001 -277.78
103.28 69.283997 -277.78
103.29 69.804001 -277.79001
103.29 70.210999 -277.79001
103.23 70.460999 -277.06
103.23 70.891998 -277.06
103.33 62.675999 -275.59
103.33 62.866001 -275.59
103.38 63.243 -276.31
103.38 63.458 -276.31
103.33 63.508999 -275.59
103.33 63.723 -275.59
103.44 65.407997 -277.04001
103.44 65.623001 -277.04001
103.39 65.668999 -276.32001
103.39 65.884003 -276.32001
103.39 66.098999 -276.32001
103.39 66.289001 -276.32001
103.44 66.676003 -277.04001
103.44 66.890999 -277.04001
103.5 67.367996 -277.78
103.5 67.584 -277.78
103.44 68.030998 -277.04999
103.44 68.247002 -277.04999
103.56 68.817001 -278.51001
103.5 68.855003 -277.78
103.56 69.25 -278.51001
103.56 69.467003 -278.51001
103.56 69.987999 -278.51999
103.56 70.396004 -278.51999
103.5 70.646004 -277.79001
103.5 71.078003 -277.79001
103.6 63.674999 -276.31
103.6 63.889999 -276.31
103.71 65.580002 -277.76999
103.71 65.795998 -277.76999
103.66 65.841003 -277.04001
103.66 66.056999 -277.04001
103.66 66.272003 -277.04001
103.66 66.462997 -277.04001
103.71 66.850998 -277.76999
103.72 67.154999 -277.78
103.77 67.762001 -278.51001
103.72 68.235001 -277.78
103.72 68.426003 -277.78
103.83 68.999001 -279.25
103.77 69.037003 -278.51001
103.83 69.432999 -279.25
103.83 69.650002 -279.25
103.72 69.594002 -277.79001
103.83 70.172997 -279.26001
103.72 70.001999 -277.79001
103.83 70.582001 -279.26001
103.77 70.832001 -278.51999
103.99 65.752998 -278.5
103.99 65.969002 -278.5
103.93 66.014 -277.76999
103.93 66.230003 -277.76999
103.93 66.445999 -277.76999
103.93 66.638 -277.76999
103.99 67.027 -278.5
103.99 67.332001 -278.51001
103.99 68.415001 -278.51001
103.99 68.607002 -278.51001
104.05 69.219002 -279.25
103.99 69.560997 -278.51999
103.99 69.777 -278.51999
103.99 70.185997 -278.51999
104.22 72.453003 -281.48999
104.2 66.404999 -278.51001
104.2 66.621002 -278.51001
104.2 66.837997 -278.51001
104.26 68.595001 -279.25
104.26 68.788002 -279.25
104.32 69.403 -279.98999
104.27 69.745003 -279.26001
104.27 69.961998 -279.26001
104.27 70.396004 -279.26001
104.5 72.736 -282.25
104.54 68.777 -279.98999
104.54 68.971001 -279.98999
104.54 70.147003 -280
104.54 70.583 -280
87.845001 -68.001999 -285.03
88.408997 -69.287003 -290.53
87 -4.6437001 -225.84
86.999001 -4.4861002 -225.84
88.653 -69.487 -291.32999
87.598 -58.027 -245.17999
87.172997 -5.4179001 -225.83
87.185997 -3.9682 -226.32001
87.185997 -3.7923999 -226.32001
87.360001 -6.8183999 -226.31
87.350998 -5.0001998 -225.84
87.386002 -2.1645999 -227.3
87.399002 -0.53986001 -227.8
87.399002 -0.18587001 -227.8
87.399002 -0.0088750003 -227.8
88.255997 -60.799 -256.53
87.816002 -55.618 -238.50999
87.513 -6.4478002 -225.35001
87.513 -6.2726998 -225.35001
87.575996 -0.36526999 -227.8
88.471001 -60.955002 -257.14999
87.919998 -51.398998 -235.31
87.724998 -7.1707001 -226.8
87.738998 -2.3464 -227.3
87.778 1.8028001 -228.78999
89.432999 -68.245003 -286.56
88.495003 -59.251999 -250.42
88.116997 -51.513 -235.83
87.924004 -7.4456 -227.77
88.706001 -59.401001 -251.00999
88.473999 -52.483002 -242.35001
88.135002 1.2832 -228.8
88.07 3.9312999 -226.35001
88.07 4.1072001 -226.35001
89.139 -61.563 -259.67999
88.917 -59.549999 -251.61
88.678001 -52.604 -242.89999
88.292 -7.9967999 -228.25999
88.246002 3.7534001 -226.35001
88.233002 4.2522998 -225.86
88.233002 4.9541998 -225.86
88.497002 -8.5628004 -229.25999
88.528999 -4.9109998 -230.27
88.542 -4.3993001 -230.78
88.542 -4.2199998 -230.78
88.571999 -2.5596001 -231.8
88.435997 3.5852001 -226.83
88.407997 4.6012998 -225.86
88.407997 4.7767 -225.86
88.421997 5.1406999 -226.34
87.720001 4.8484998 -201.28999
87.709 5.1377001 -200.89999
87.709 5.2937999 -200.89999
87.709 5.4499002 -200.89999
87.709 5.6059999 -200.89999
88.369003 7.2177 -224.42
88.894997 -52.444 -237.42
88.691002 -6.9222999 -229.75999
88.691002 -6.7438002 -229.75999
87.874001 4.6237998 -201.28
88.556999 6.8836002 -224.89999
89.095001 -52.568001 -237.95
88.888 -24.02 -230.71001
88.905998 -20.731001 -231.23
88.931999 -2.0431001 -231.78999
88.031998 5.9278002 -201.28999
91.038002 -70.346001 -295.38
89.023003 -22.938 -229.21001
89.023003 -22.582001 -229.21001
89.038002 -22.448 -229.71001
89.053001 -22.313999 -230.21001
89.075996 -9.5681 -230.75
89.124001 -7.7642002 -232.28
89.142998 -0.96416003 -232.82001
89.144997 -0.73021001 -232.83
90.146004 -61.432999 -259.67001
89.293999 -26.914 -232.23
89.278 -26.5 -231.71001
89.247002 -25.624001 -230.71001
89.247002 -25.445 -230.71001
89.247002 -25.264999 -230.71001
89.217003 -22.988001 -229.71001
89.266998 -16.538 -231.24001
89.250999 -15.789 -230.73
89.250999 -15.609 -230.73
89.272003 -10.469 -231.25999
89.272003 -10.29 -231.25999
89.360001 1.5027 -233.87
89.360001 1.6844 -233.87
90.367996 -61.591999 -260.31
89.719002 -53.439999 -240.11
89.440002 -25.93 -231.2
89.445 -21.101999 -231.23
89.447998 -16.882999 -231.24001
89.468002 -10.672 -231.77
89.523003 -0.19039001 -233.34
89.523003 -0.0090910001 -233.34
89.523003 0.17220999 -233.34
