# .PCD v0.7 - Point Cloud Data file format
VERSION 0.7
FIELDS x y z
SIZE 4 4 4
TYPE F F F
COUNT 1 1 1
WIDTH 1864
HEIGHT 1
VIEWPOINT 0 0 0 1 0 0 0
POINTS 1864
DATA ascii
111.47 -12.355 -245.62
111.54 -12.12 -246.21001
111.48 -11.142 -245.64
111.27 -10.696 -243.92999
111.27 -10.506 -243.92999
111.41 -9.3371 -245.08
110.87 24.224001 -240.3
111.48 27.737 -245.35001
111.48 27.927999 -245.35001
111.75 28.947001 -247.66
111.41 29.837 -244.8
111.41 30.027 -244.8
112.18 31.58 -251.2
112.18 31.969999 -251.21001
112.11 32.174999 -250.62
111.97 32.591 -249.44
111.9 32.707001 -248.85001
111.83 33.209 -248.25999
112.04 33.639 -250.03
111.76 33.793999 -247.69
112.04 34.293999 -250.03999
112.33 35.012001 -252.42999
112.04 35.070999 -250.03999
112.04 35.264999 -250.03999
111.83 35.209999 -248.27
111.98 35.655998 -249.46001
111.77 35.584999 -247.7
112.19 36.674999 -251.24001
112.48 37.223 -253.66
112.48 37.419998 -253.66
112.12 37.368 -250.64
112.05 37.740002 -250.06
112.23 64.293999 -251.39
112.23 65.466003 -251.39
115.86 -61.723 -280.70999
115.33 -57.712002 -276.29001
115.42 -57.640999 -277.01999
115.42 -57.425999 -277.01999
111.65 -17.715 -245.58
111.72 -17.561001 -246.14999
111.66 -17.253 -245.59
111.66 -15.739 -245.59
111.66 -14.908 -245.61
111.66 -14.717 -245.61
111.66 -14.335 -245.61
111.59 -12.905 -245.05
111.66 -12.74 -245.62
111.66 -12.549 -245.62
111.73 -12.205 -246.19
111.53 -10.721 -244.49001
111.53 -10.543 -244.49001
111.46 -10.062 -243.94
111.53 -9.7019997 -244.50999
111.67 -9.3587999 -245.64999
111.67 -9.1680002 -245.64999
111.67 -8.9771996 -245.64999
111.12 24.280001 -240.85001
111.74 27.802 -245.92999
111.74 27.993 -245.92999
112.02 29.014999 -248.24001
111.67 29.906 -245.37
111.67 30.097 -245.37
111.6 30.393999 -244.8
111.67 31.037001 -245.37
112.38 32.250999 -251.22
112.24 32.667999 -250.03
112.16 32.785 -249.44
111.74 32.519001 -245.95
111.74 32.709999 -245.95
112.31 33.719002 -250.62
112.03 33.874001 -248.28
112.31 34.375 -250.63
112.6 35.096001 -253.03
112.31 35.153999 -250.63
112.31 35.348999 -250.63
112.24 35.740002 -250.05
112.03 35.667999 -248.28999
111.89 35.695 -247.12
112.46 36.763 -251.84
112.75 37.313 -254.27
112.75 37.509998 -254.27
112.38 37.457001 -251.24001
112.32 37.830002 -250.64999
112.61 38.779999 -253.06
112.75 39.557999 -254.28
112.75 39.741001 -254.28
112.35 63.685001 -250.78
112.35 63.952 -250.78999
112.28 64.192001 -250.2
112.35 64.537003 -250.78999
112.35 64.732002 -250.78999
112.35 64.927002 -250.78999
112.35 65.122002 -250.78999
112.49 65.622002 -251.99001
112.49 65.804001 -251.99001
116.26 -65.222 -282.19
111.92 -17.292999 -246.17
111.78 -15.452 -245.03
111.93 -8.9981003 -246.22
111.93 -8.6283998 -246.22
111.38 24.334999 -241.39999
112 27.867001 -246.5
112 28.058001 -246.5
112.28 29.083 -248.82001
111.93 29.976 -245.94
111.93 30.167 -245.94
111.86 30.465 -245.36
111.93 31.108999 -245.94
112.65 32.132999 -251.82001
112.65 32.327999 -251.82001
113.09 32.994999 -255.47
112.5 32.744999 -250.62
112.43 32.862 -250.03
112.01 32.595001 -246.52
112.01 32.785999 -246.52
112.57 33.799 -251.22
112.58 34.457001 -251.23
112.15 34.166 -247.69
112.87 35.181 -253.64
112.58 35.237999 -251.23
112.58 35.432999 -251.23
112.51 35.825001 -250.64
112.15 35.778 -247.7
112.15 35.971001 -247.7
112.73 36.851002 -252.44
113.02 37.403 -254.88
113.02 37.601002 -254.88
112.65 37.546001 -251.84
112.58 37.919998 -251.25
112.37 37.847 -249.47
112.37 38.041 -249.47
112.88 38.873001 -253.67
112.88 39.07 -253.67
113.02 39.653999 -254.89
113.02 39.837002 -254.89
112.95 40.026001 -254.28999
112.51 40.435001 -250.67
112.73 40.918999 -252.46001
112.95 41.395 -254.28999
112.76 63.743 -252.58
112.61 63.640999 -251.38
112.61 63.835999 -251.38
112.62 64.103996 -251.39
112.54 64.345001 -250.78999
112.62 65.081001 -251.39
112.62 65.277 -251.39
112.76 66.244003 -252.60001
112.76 66.441002 -252.60001
116.57 -65.404999 -282.95001
113.13 -56.544998 -254.82001
112.04 -15.487 -245.60001
112.04 -15.297 -245.60001
112.13 -7.4018998 -246.23
111.63 23.003 -241.94
111.63 24.391001 -241.95
112.26 27.931999 -247.08
112.26 28.124001 -247.08
112.55 29.152 -249.41
112.19 30.046 -246.50999
112.19 30.237 -246.50999
112.12 30.535999 -245.94
112.19 31.181999 -246.50999
113.37 33.075001 -256.09
112.13 31.959 -245.95
112.77 32.823002 -251.22
112.7 32.939999 -250.62
112.85 33.966 -251.83
112.85 34.539001 -251.83
112.41 34.247002 -248.27
113.14 35.264999 -254.25
112.85 35.321999 -251.83
112.85 35.516998 -251.83
112.78 35.91 -251.24001
112.41 36.055 -248.28999
113 36.938999 -253.05
113.29 37.493 -255.5
112.41 36.827 -248.28999
112.92 37.636002 -252.44
112.49 37.372002 -248.88
112.85 38.009998 -251.85001
112.63 37.937 -250.06
112.63 38.131001 -250.06
113.15 38.966999 -254.28
113.15 39.164001 -254.28
113.3 39.75 -255.50999
113.3 39.932999 -255.50999
113.23 40.123001 -254.89999
112.78 40.532001 -251.25999
113 41.016998 -253.07001
113.03 63.896 -253.19
112.88 63.792999 -251.98
112.89 64.075996 -251.99001
113.03 66.599998 -253.2
116.98 -65.758003 -284.48001
115.7 -63.033001 -274.09
113.4 -56.688 -255.44
112.39 -6.3909001 -246.82001
111.89 23.056 -242.5
111.89 24.447001 -242.50999
112.52 27.997999 -247.66
112.52 28.190001 -247.66
112.81 29.221001 -250
112.17 28.801001 -244.78
112.46 30.115999 -247.09
112.46 30.308001 -247.09
112.39 30.607 -246.50999
112.46 31.254999 -247.09
113.19 32.483002 -253.02
113.64 33.155998 -256.72
113.04 32.901001 -251.81
112.96 33.019001 -251.22
113.12 34.047001 -252.42999
113.12 34.620998 -252.42999
113.41 35.349998 -254.87
113.12 35.405998 -252.42999
113.12 35.602001 -252.42999
113.04 35.995998 -251.84
113.27 37.028 -253.64999
113.57 37.584 -256.12
112.68 36.914001 -248.87
113.19 37.726002 -253.05
112.75 37.460999 -249.47
113.12 38.101002 -252.45
112.9 38.027 -250.64999
112.9 38.222 -250.64999
113.42 39.061001 -254.89
113.42 39.258999 -254.89
113.57 39.846001 -256.13
113.57 40.044998 -256.13
113.5 40.220001 -255.52
112.9 40.047001 -250.67
112.9 40.242001 -250.67
113.05 40.627998 -251.86
113.27 41.116001 -253.67999
113.28 42.568001 -253.69
113.3 64.049004 -253.8
113.15 63.945 -252.58
113.16 64.228996 -252.59
113.23 66.997002 -253.2
116 -63.205002 -274.79999
114.8 -59.162998 -265.10001
112.58 -6.2023001 -246.82001
112.58 -6.0105 -246.82001
112.14 23.108999 -243.06
112.15 24.503 -243.07001
112.79 28.063 -248.24001
112.79 28.256001 -248.24001
113.08 29.291 -250.59
112.43 28.868 -245.35001
112.72 30.379 -247.67
112.65 30.679001 -247.09
112.72 31.327999 -247.67
113.46 32.363998 -253.63
113.46 32.561001 -253.63
113.92 33.237 -257.34
113.31 32.98 -252.42
113.23 33.097 -251.81
113.39 34.129002 -253.03999
113.39 34.703999 -253.03
113.69 35.436001 -255.48
113.39 35.688 -253.03
113.31 36.082001 -252.44
113.54 37.117001 -254.25999
113.7 38.176998 -255.50999
113.39 38.193001 -253.06
113.17 38.117001 -251.25
113.17 38.313 -251.25
113.7 39.154999 -255.50999
113.7 39.354 -255.50999
113.85 39.943001 -256.75
113.85 40.143002 -256.75
113.77 40.318001 -256.14001
113.1 39.658001 -250.67
113.1 39.853001 -250.67
113.17 40.143002 -251.25999
113.17 40.338001 -251.25999
113.32 40.724998 -252.46001
113.55 41.215 -254.28999
113.55 42.671001 -254.3
113.57 64.204002 -254.41
113.43 64.185997 -253.2
113.43 64.383003 -253.2
113.43 66.803001 -253.2
113.5 67.157997 -253.81
113.5 67.355003 -253.81
117.91 -66.649002 -288.37
117.71 -65.378998 -286.79999
112.4 23.163 -243.62
112.41 24.559999 -243.63
113.05 28.129999 -248.82001
113.06 28.323 -248.82001
113.35 29.374001 -251.19
112.69 28.934999 -245.92
112.91 30.750999 -247.67
113.81 32.036999 -254.84
112.98 31.402 -248.25
113.73 32.442001 -254.24001
113.73 32.639999 -254.24001
114.2 33.318001 -257.97
113.58 33.058998 -253.02
113.5 33.175999 -252.42
113.66 34.210999 -253.64
113.66 34.787998 -253.64
113.59 36.167999 -253.05
113.81 37.207001 -254.88
113.66 38.284 -253.66
113.44 38.208 -251.85001
113.44 38.403999 -251.85001
113.97 39.25 -256.13
113.97 39.449001 -256.13
114.13 40.040001 -257.38
114.05 40.230999 -256.76001
114.05 40.416 -256.76001
113.37 39.752998 -251.25999
113.37 39.948002 -251.25999
113.44 40.237999 -251.86
113.44 40.433998 -251.86
113.59 40.823002 -253.07001
113.82 41.313999 -254.89999
113.67 43.629002 -253.7
113.75 43.931 -254.31
113.75 44.127998 -254.31
113.75 44.326 -254.31
113.75 44.523998 -254.31
113.83 45.694 -254.92999
113.9 46.200001 -255.55
113.85 64.359001 -255.02
113.7 64.339996 -253.81
113.7 66.963997 -253.81
113.78 67.32 -254.42
113.78 67.516998 -254.42
118.03 -65.565002 -287.57999
112.66 23.216 -244.17999
112.67 24.617001 -244.19
113.32 28.195999 -249.41
113.32 28.389999 -249.41
113.62 29.444 -251.78999
112.96 29.002001 -246.5
113.18 30.823 -248.25
113.25 31.476 -248.83
114.01 32.52 -254.86
114.01 32.717999 -254.86
114.48 33.398998 -258.60001
113.85 33.138 -253.63
113.78 33.256001 -253.02
113.93 34.292999 -254.25
113.93 34.872002 -254.25
113.86 36.255001 -253.64999
114.09 37.297001 -255.5
113.94 38.376999 -254.28
113.71 38.299999 -252.45
113.71 38.495998 -252.45
114.25 39.544998 -256.75
114.41 40.138 -258
114.33 40.328999 -257.39001
114.33 40.514 -257.39001
113.64 39.848 -251.86
113.64 40.042999 -251.86
114.1 41.414001 -255.52
113.87 43.148998 -253.69
113.95 43.535999 -254.31
113.95 43.734001 -254.31
113.95 44.722 -254.31
114.1 45.804001 -255.55
113.97 64.495003 -254.42
114.13 65.198997 -255.64999
113.97 67.125 -254.42
114.05 67.482002 -255.03999
114.05 67.68 -255.03999
118.35 -65.751999 -288.35999
113.16 -4.4155002 -246.83
113.38 -4.2445998 -248.58
113.38 -4.0644002 -248.58
112.92 23.27 -244.75
112.93 24.674 -244.75999
113.59 28.263 -250
113.59 28.457001 -250
113.89 29.514 -252.39
113.22 29.07 -247.07001
114.76 33.480999 -259.23999
114.13 33.217999 -254.24001
114.05 33.335999 -253.63
114.21 34.375999 -254.87
114.21 34.956001 -254.87
114.21 35.748001 -254.87
114.21 35.945999 -254.87
114.13 36.341999 -254.27
114.37 37.387001 -256.10999
114.21 38.469002 -254.89
113.98 38.390999 -253.06
113.98 38.588001 -253.06
114.53 39.442001 -257.38
114.53 39.641998 -257.38
114.69 40.237 -258.64001
114.61 40.428001 -258.01999
114.61 40.612999 -258.01999
113.91 39.943001 -252.46001
114.14 43.266998 -254.3
114.22 44.830002 -254.92
114.14 44.921001 -254.31
114.3 46.799 -255.55
114.3 46.983002 -255.55
114.25 64.453003 -255.03
114.25 64.651001 -255.03
114.25 64.848999 -255.03
114.4 65.357002 -256.26999
114.4 65.556 -256.26999
114.25 67.287003 -255.03999
114.33 67.646004 -255.66
114.33 67.844002 -255.66
114.41 68.205002 -256.28
117.22 -63.902 -277.67999
118.38 -62.898998 -286.79999
113.57 -3.8741 -248.58
113.57 -3.681 -248.58
113.52 6.7712002 -248.08
113.19 23.323999 -245.31
113.19 24.731001 -245.33
113.86 28.33 -250.59
113.86 28.525 -250.59
114.16 29.584999 -253
113.49 29.138 -247.64999
115.04 33.563999 -259.88
114.4 33.298 -254.85001
114.32 33.416 -254.24001
114.48 34.459 -255.48
114.48 35.055 -255.48
114.48 35.834 -255.48
114.41 36.43 -254.88
114.64 37.478001 -256.73999
114.49 38.562 -255.50999
114.26 38.484001 -253.66
114.26 38.681 -253.66
114.81 39.537998 -258
114.81 39.737999 -258
114.97 40.334999 -259.26999
114.89 40.527 -258.64999
114.89 40.713001 -258.64999
114.41 41.118999 -254.89999
114.42 45.029999 -254.92
114.19 45.963001 -253.10001
114.19 46.16 -253.10001
114.52 64.609001 -255.64999
114.52 64.806999 -255.64999
114.52 65.005997 -255.64999
114.68 65.515999 -256.89001
114.68 65.716003 -256.89001
114.61 68.009003 -256.28
114.68 68.371002 -256.89999
117.53 -64.07 -278.42001
113.79 4.7838001 -248.64999
113.79 6.7870998 -248.66
113.45 23.378 -245.89
113.45 24.789 -245.89999
114.13 28.591999 -251.19
114.44 29.656 -253.61
113.75 29.207001 -248.24001
115.32 33.646999 -260.51999
114.68 33.379002 -255.47
114.6 33.497002 -254.85001
114.76 34.542999 -256.10001
114.76 35.139999 -256.10001
114.76 35.921001 -256.10001
114.69 36.518002 -255.5
114.92 37.569 -257.35999
114.85 38.165001 -256.75
114.38 38.013 -253.06
114.77 38.655998 -256.13
114.53 38.576 -254.28
114.53 38.773998 -254.28
115.09 39.634998 -258.64001
115.09 39.835999 -258.64001
114.22 38.993999 -251.85001
114.69 41.217999 -255.52
114.15 40.928001 -251.25999
114.46 42.771 -253.69
114.46 42.969002 -253.69
114.46 46.073002 -253.71001
114.46 46.271 -253.71001
114.39 46.737 -253.10001
114.39 47.021999 -253.11
114.39 47.217999 -253.11
114.39 47.415001 -253.11
114.94 48.414001 -257.42999
114.86 48.497002 -256.81
114.63 49.215 -254.96001
114.55 50.085999 -254.34
114.8 64.963997 -256.26999
114.8 65.164001 -256.26999
114.96 65.676003 -257.51999
114.96 65.875999 -257.51999
114.88 68.174004 -256.89999
117.84 -64.248001 -279.14999
115.36 -57.507 -259.82999
114.04 -3.3055 -249.16
114.19 -2.4663 -250.36
114.05 5.1823001 -249.24001
113.9 5.539 -248.06
113.91 6.3815999 -248.08
113.91 6.5743999 -248.08
114.06 6.8031998 -249.25
114.06 9.0052004 -249.25999
113.71 23.433001 -246.46001
113.72 24.846001 -246.47
114.4 28.660999 -251.78999
114.71 29.728001 -254.22
114.02 29.275999 -248.82001
115.61 33.73 -261.16
114.96 33.473999 -256.09
114.88 33.577999 -255.47
115.04 34.626999 -256.73001
115.04 35.224998 -256.73001
115.36 35.958 -259.25
115.04 36.008999 -256.73001
114.96 36.606998 -256.12
115.2 37.660999 -257.98999
115.13 38.257999 -257.38
114.65 38.104 -253.67
115.05 38.75 -256.75
114.81 38.668999 -254.89
114.81 38.867001 -254.89
115.37 39.731998 -259.26999
115.37 39.933998 -259.26999
114.5 39.087002 -252.45
114.97 41.318001 -256.14001
114.42 41.112999 -251.87
114.42 41.490002 -251.87
114.73 42.874001 -254.3
114.73 43.071999 -254.3
114.74 46.183998 -254.32001
114.74 46.382 -254.32001
114.66 47.133999 -253.72
114.66 47.332001 -253.72
114.66 47.528999 -253.72
115.22 48.532001 -258.06
115.14 48.615002 -257.42999
114.74 48.235001 -254.33
114.74 48.432999 -254.33
114.74 48.616001 -254.33
114.75 49.297001 -254.34
114.75 49.494999 -254.34
114.75 49.889999 -254.34
114.83 51.470001 -254.97
114.83 51.667999 -254.97
115.08 65.321999 -256.89001
115.24 66.037003 -258.14999
115.08 65.920998 -256.89001
115.16 68.139999 -257.53
115.16 68.341003 -257.53
114.23 -3.5020001 -249.16
114.31 -2.9252999 -249.75
114.31 -2.6473 -249.77
114.46 -2.4721999 -250.96001
114.31 -2.0778999 -249.77
114.39 1.7585 -250.39
114.39 1.9529999 -250.39
114.1 4.3804998 -248.06
114.32 4.8063998 -249.83
114.17 5.5521002 -248.64999
114.1 5.717 -248.06
114.18 6.3965998 -248.66
114.18 6.5897999 -248.66
114.1 7.1504998 -248.08
114.17 7.7363 -248.66
114.25 8.0349998 -249.25999
114.25 8.2286997 -249.25999
114.25 8.4223003 -249.25999
114.18 8.5937996 -248.67999
113.98 23.488001 -247.03999
113.98 24.905001 -247.05
114.99 29.799 -254.83
114.29 29.344999 -249.41
115.89 33.813 -261.81
115.24 33.556 -256.70999
115.16 33.659 -256.09
115.32 34.710999 -257.35001
115.32 35.311001 -257.35001
115.65 36.046001 -259.88
115.16 35.723 -256.10001
115.32 36.096001 -257.35001
115.24 36.695999 -256.73999
115.49 37.752998 -258.62
114.93 38.195999 -254.28
115.33 38.859001 -257.38
115.09 38.763 -255.50999
115.09 38.960999 -255.50999
115.65 39.830002 -259.91
115.65 40.032001 -259.91
114.77 39.181 -253.06
115.25 41.417999 -256.76001
115.01 42.978001 -254.91
115.01 43.175999 -254.91
115.17 43.671001 -256.16
115.02 46.296001 -254.92999
115.02 46.493999 -254.92999
114.94 47.643002 -254.33
115.5 48.651001 -258.69
115.42 48.734001 -258.06
115.02 48.351002 -254.95
115.02 48.549999 -254.95
115.02 48.734001 -254.94
114.86 50.351002 -253.73
115.02 50.876999 -254.97
115.1 51.595001 -255.58
115.1 51.792999 -255.58
115.18 52.316002 -256.20001
115.18 52.5 -256.20001
115.19 53.186001 -256.20999
115.19 53.983002 -256.20999
115.53 66.198997 -258.78
115.36 66.082001 -257.51999
115.36 66.267998 -257.51999
115.45 68.306999 -258.16
115.45 68.508003 -258.16
114.43 -2.2721 -249.17999
114.58 -2.0829 -250.36
114.67 1.7627 -250.99001
114.67 1.9577 -250.99001
114.43 2.1300001 -249.21001
114.43 2.3236001 -249.21001
114.59 3.5785999 -250.39999
114.59 3.7730999 -250.39999
114.59 3.9677 -250.39999
114.59 4.1493001 -250.39999
114.36 4.3908 -248.64999
114.21 4.5581002 -247.48
114.37 7.1673999 -248.66
114.14 7.3028002 -246.91
114.44 7.7546 -249.25
114.45 8.6141005 -249.25999
114.61 10.093 -250.46001
114.25 23.542999 -247.61
114.25 24.962999 -247.63
115.27 29.871 -255.45
114.56 29.414 -250
116.18 33.896999 -262.45999
115.52 33.637001 -257.34
115.44 33.741001 -256.70999
115.36 34.344002 -256.10001
115.6 34.796001 -257.98001
115.6 35.396999 -257.98001
115.93 36.134998 -260.53
115.44 35.810001 -256.72
115.6 36.185001 -257.98001
115.52 36.785 -257.35999
115.77 37.846001 -259.26001
116.1 38.423 -261.82999
115.2 38.287998 -254.89
115.61 38.953999 -258.01001
115.36 38.856998 -256.13
115.36 39.056 -256.13
115.94 39.928001 -260.54999
115.94 40.131001 -260.54999
115.05 39.275002 -253.66
115.53 41.519001 -257.39001
115.29 43.082001 -255.53
115.29 43.279999 -255.53
115.45 43.777 -256.78
115.3 46.408001 -255.55
115.7 47.372002 -258.67999
115.79 48.77 -259.32999
115.7 48.853001 -258.69
115.14 50.473 -254.34
115.46 52.443001 -256.82999
115.46 52.627998 -256.82999
115.47 53.116001 -256.84
115.47 53.316002 -256.84
115.64 66.242996 -258.14999
115.64 66.444 -258.14999
115.81 68.250999 -259.42001
115.65 68.124001 -258.16
115.73 68.473999 -258.79001
115.01 -1.3085999 -252.16
114.7 2.135 -249.78999
114.7 2.3164001 -249.78999
114.55 2.4937999 -248.61
114.33 6.1497998 -246.91
114.41 7.3199 -247.49001
114.33 7.4804001 -246.91
114.57 10.208 -248.69
114.52 23.598 -248.2
114.52 25.021999 -248.21001
115.55 29.944 -256.07001
114.83 29.483999 -250.59
116.47 33.981998 -263.10999
115.8 33.720001 -257.97
115.72 33.823002 -257.34
115.64 34.428001 -256.73001
115.89 34.881001 -258.60999
115.89 35.484001 -258.60999
115.72 35.896999 -257.35001
115.89 36.272999 -258.60999
115.81 36.875 -257.98999
116.05 37.938999 -259.89999
116.39 38.518002 -262.48001
116.39 38.722 -262.48001
115.48 38.381001 -255.50999
115.89 39.049 -258.64001
115.64 38.951 -256.75
115.64 39.151001 -256.75
116.23 40.027 -261.19
116.23 40.23 -261.19
115.32 39.368999 -254.28
115.81 41.620998 -258.01999
116.06 42.127998 -259.92001
115.57 43.186001 -256.14999
115.57 43.384998 -256.14999
115.74 43.883999 -257.41
115.99 47.487999 -259.32001
116.07 48.889999 -259.97
115.99 48.973 -259.32999
115.26 50.837002 -253.74001
115.26 51.625999 -253.74001
115.67 53.916 -256.84
115.75 54.245998 -257.45999
115.75 54.431999 -257.45999
115.92 55.387001 -258.73001
115.75 55.320999 -257.47
115.67 55.987 -256.85001
115.59 56.039001 -256.22
115.67 56.372002 -256.85001
115.59 56.924 -256.23001
115.67 57.459 -256.85999
115.92 58.464001 -258.73999
115.84 58.523998 -258.10999
115.93 66.405998 -258.78
115.93 66.607002 -258.78
115.93 66.883003 -258.79001
116.1 68.217003 -260.06
116.1 68.418999 -260.06
115.93 68.291 -258.79001
116.01 68.641998 -259.42001
114.82 2.4997001 -249.2
114.84 10.232 -249.28
114.99 11.05 -250.46001
114.79 23.653999 -248.78
114.79 25.080999 -248.78999
115.83 30.017 -256.69
115.11 29.554001 -251.19
115.43 30.912001 -253.62
115.43 31.108999 -253.62
116.42 32.625999 -261.14001
115.43 31.971001 -253.63
116.34 33.040001 -260.51001
116.25 33.362 -259.87
116.76 34.067001 -263.76999
116.08 33.801998 -258.60001
116 33.905998 -257.97
115.92 34.512001 -257.35001
116.17 34.966999 -259.25
116.17 35.570999 -259.25
116 35.985001 -257.98001
116.17 36.451 -259.26001
116.09 36.965 -258.62
116.34 38.033001 -260.54001
116.68 38.613998 -263.14001
116.18 39.145 -259.26999
115.93 39.046001 -257.37
115.93 39.245998 -257.37
116.51 40.125999 -261.84
116.51 40.330002 -261.84
116.69 40.824001 -263.16
116.1 41.723 -258.64999
116.1 43.896 -258.67001
116.02 43.991001 -258.04001
116.27 47.605 -259.95999
116.36 49.011002 -260.60999
116.27 49.094002 -259.97
115.54 48.723999 -254.34
115.54 50.959999 -254.35001
115.54 51.750999 -254.35001
115.54 52.330002 -254.35001
115.54 53.011002 -254.36
115.54 53.209 -254.36
115.95 54.048 -257.45999
116.03 54.379002 -258.09
115.54 53.801998 -254.36
115.54 53.986 -254.36
115.54 54.183998 -254.36
116.2 55.522999 -259.37
116.03 55.456001 -258.10001
115.71 55.126999 -255.60001
115.71 55.325001 -255.60001
115.62 55.391998 -254.99001
115.87 56.174999 -256.85001
115.71 56.305 -255.60001
115.87 57.062 -256.85999
115.87 57.262001 -256.85999
115.95 57.599998 -257.48001
115.95 57.985001 -257.48001
116.12 58.667 -258.73999
116.04 59.016998 -258.12
116.04 59.216999 -258.12
116.21 66.569 -259.42001
116.21 66.860001 -259.42999
116.21 67.046997 -259.42001
116.38 67.777 -260.70001
116.38 67.980003 -260.70001
116.38 68.181999 -260.70001
116.38 68.385002 -260.70001
116.38 68.587997 -260.70001
116.21 68.459 -259.42001
116.3 68.916 -260.07001
115.57 -0.84915 -253.38
115.49 -0.65341002 -252.77
115.49 -0.45703 -252.77
115.57 -0.25861001 -253.38
115.01 0.96087003 -249.2
114.8 10.345 -247.52
115.11 10.645 -249.87
115.06 23.709999 -249.37
115.06 25.139999 -249.38
116.11 30.09 -257.31
115.38 29.625 -251.78999
115.71 30.986 -254.23
115.71 31.184 -254.23
115.62 31.503 -253.62
116.71 32.707001 -261.79001
115.71 32.048 -254.24001
116.62 33.120998 -261.16
116.54 33.242001 -260.51001
116.54 33.445 -260.51001
117.06 34.152 -264.42999
116.37 33.884998 -259.23001
116.28 33.988998 -258.60001
116.2 34.596001 -257.98001
116.46 35.053001 -259.89001
116.46 35.659 -259.89001
116.29 36.073002 -258.60999
116.46 36.541 -259.89999
116.37 37.056 -259.26001
116.63 38.126999 -261.17999
116.97 38.710999 -263.79001
116.46 39.241001 -259.91
116.21 39.141998 -258
116.21 39.341999 -258
116.8 40.226002 -262.48999
116.8 40.43 -262.48999
116.98 40.925999 -263.82001
116.98 41.131001 -263.82001
116.89 41.233002 -263.16
116.38 41.825001 -259.28
116.39 44.004002 -259.31
116.3 44.098999 -258.67001
116.14 46.747002 -257.42001
116.56 47.722 -260.60001
116.65 49.132 -261.25
116.56 49.215 -260.60999
115.82 51.083 -254.97
115.82 51.875 -254.97
115.82 52.544998 -254.98
115.82 53.139 -254.98
115.82 53.337002 -254.98
116.23 54.18 -258.09
116.32 54.512001 -258.72
115.82 53.931999 -254.98
115.82 54.116001 -254.98
116.49 55.457001 -260.01001
116.49 55.66 -260.01001
116.32 55.591999 -258.73001
115.9 55.526001 -255.60001
115.91 56.396 -255.61
116.24 58.126999 -258.10999
116.32 59.160999 -258.75
116.32 59.362 -258.75
116.32 59.563 -258.75
116.5 67.025002 -260.06
116.5 67.226997 -260.06
116.5 67.414001 -260.06
116.67 67.945 -261.35001
116.67 68.148003 -261.35001
116.67 68.350998 -261.35001
116.67 68.554001 -261.35001
116.67 68.757004 -261.35001
116.5 68.626999 -260.06
116.59 69.085999 -260.70999
117.08 -58.408001 -263.72
115.07 10.37 -248.10001
115.71 12.804 -252.87
115.33 23.766001 -249.96001
115.33 25.198999 -249.97
116.4 30.163 -257.94
115.66 29.709 -252.39
115.98 31.061001 -254.84
115.98 31.259001 -254.84
115.9 31.579 -254.23
117 32.787998 -262.44
115.99 32.125 -254.85001
116.91 33.203999 -261.81
116.83 33.324001 -261.16
116.83 33.527 -261.16
116.66 33.969002 -259.87
116.57 34.071999 -259.23001
116.49 34.681 -258.60999
116.74 35.139 -260.53
116.74 35.747002 -260.53
116.57 36.161999 -259.25
116.75 36.631001 -260.54001
116.66 37.146999 -259.89999
116.92 38.221001 -261.82999
117.27 38.807999 -264.45001
116.75 39.338001 -260.54999
116.49 39.237 -258.63
116.49 39.438 -258.63
117.09 40.326 -263.14999
117.09 40.530998 -263.14999
117.27 41.028 -264.48001
117.27 41.234001 -264.48001
117.19 41.335999 -263.82001
116.67 41.928001 -259.92001
116.67 44.112999 -259.94
116.59 44.207001 -259.31
116.42 46.861 -258.04999
116.85 47.84 -261.23999
116.94 49.254002 -261.89999
116.85 49.337002 -261.25
116.1 51.206001 -255.58
116.1 52.000999 -255.58
116.6 52.958 -259.35001
116.6 53.159 -259.35001
116.1 52.672001 -255.59
116.6 53.839001 -259.35999
116.1 53.268002 -255.59
116.1 53.466999 -255.59
116.52 54.313 -258.72
116.6 54.646 -259.35999
116.77 55.797001 -260.64999
116.6 55.729 -259.37
116.19 56.532001 -256.23001
116.27 57.666 -256.85999
116.61 60.299999 -259.39001
116.79 67.190002 -260.70999
116.79 67.392998 -260.70999
116.79 67.581001 -260.70001
116.96 68.112999 -262
116.96 68.928001 -262
116.88 69.054001 -261.35999
116.88 69.257004 -261.35999
114.35 -55.202 -241.83
117.38 -58.560001 -264.38
115.34 12.967 -248.7
115.6 23.822001 -250.55
115.61 25.259001 -250.57001
116.68 30.237 -258.57001
115.93 29.780001 -253
116.27 31.136 -255.46001
116.27 31.334 -255.46001
116.18 31.655001 -254.84
117.29 32.869999 -263.10001
116.27 32.202999 -255.47
117.2 33.285999 -262.45999
117.12 33.407001 -261.81
117.12 33.611 -261.81
116.94 34.051998 -260.51001
116.86 34.155998 -259.87
116.77 34.765999 -259.25
117.03 35.226002 -261.17001
117.03 35.834999 -261.17001
116.86 36.250999 -259.88
117.04 36.722 -261.17999
116.95 37.238998 -260.54001
117.21 38.316002 -262.48001
117.56 38.904999 -265.12
117.12 38.922001 -261.84
117.39 39.417 -263.81
117.04 39.435001 -261.20001
116.78 39.334 -259.26999
116.78 39.535 -259.26999
117.39 40.426998 -263.79999
117.39 40.632 -263.79999
116.95 42.032001 -260.56
116.7 43.609001 -258.66
116.96 44.221001 -260.59
116.88 44.316002 -259.94
116.71 46.976002 -258.67999
116.71 47.176998 -258.67999
117.14 47.959 -261.89001
117.23 49.376999 -262.54999
117.14 49.459 -261.89999
116.38 49.078999 -256.19
116.38 51.331001 -256.20001
116.38 52.126999 -256.20001
116.89 53.088001 -259.98999
116.89 53.290001 -259.98999
116.38 52.799999 -256.20999
116.89 53.77 -260
116.89 53.972 -260
116.38 53.396999 -256.20999
116.38 53.596001 -256.20999
116.8 54.445999 -259.35999
117.06 55.935001 -261.29001
116.89 55.866001 -260.01001
116.55 57.806999 -257.48001
116.64 59.625999 -258.12
116.9 60.448002 -260.03
116.9 60.651001 -260.03
116.9 60.853001 -260.03
116.9 61.145 -260.04001
116.9 61.347 -260.04001
116.9 61.750999 -260.04001
116.9 61.952999 -260.04001
116.99 63.192001 -260.69
117.08 67.559998 -261.35001
117.08 67.748001 -261.35001
117.25 68.281998 -262.64999
117.25 68.487 -262.64999
117.25 68.691002 -262.64999
117.25 68.894997 -262.64999
117.25 69.098999 -262.64999
117.17 69.224998 -262.01001
117.17 69.429001 -262.01001
120.59 -66.042999 -286.73001
120.38 -65.470001 -285.17001
117.67 -58.714001 -265.04001
115.62 12.998 -249.28
116.29 22.799999 -254.17999
115.88 23.879 -251.14999
115.88 25.319 -251.16
116.96 26.334999 -259.17999
116.97 30.311001 -259.20999
116.21 29.851 -253.60001
116.46 31.731001 -255.46001
117.58 32.952 -263.75
116.55 32.280998 -256.09
117.49 33.368999 -263.10999
117.41 33.490002 -262.45999
117.41 33.694 -262.45999
117.23 34.137001 -261.16
117.15 34.255001 -260.51001
117.06 34.851002 -259.88
117.32 35.313 -261.82001
117.32 35.924 -261.82001
117.15 36.34 -260.51999
117.33 36.813 -261.82999
117.24 37.331001 -261.17999
117.5 38.411999 -263.13
117.42 39.019001 -262.48999
117.68 39.515999 -264.47
117.33 39.533001 -261.84
117.07 39.445 -259.91
117.07 39.632999 -259.91
117.68 40.528 -264.47
117.68 40.734001 -264.47
117.51 42.537998 -263.17001
116.99 43.806 -259.31
117.25 44.331001 -261.23001
117.16 44.424999 -260.59
117.25 46.029999 -261.23999
116.99 47.091999 -259.32001
116.99 47.292999 -259.32001
117.43 48.168999 -262.54999
117.52 49.5 -263.20999
117.43 49.582001 -262.54999
116.66 49.198002 -256.82001
116.66 51.455002 -256.82999
117.17 52.409 -260.63
116.66 52.254002 -256.82999
117.17 53.219002 -260.63
116.67 52.742001 -256.84
116.67 52.928001 -256.84
117.18 53.902 -260.64001
117.18 54.105 -260.64001
117.09 54.580002 -260
117.35 55.869999 -261.94
117.35 56.074001 -261.94
117.18 56.004002 -260.64999
117.36 59.188999 -261.95001
116.84 58.625 -258.12
116.93 59.771999 -258.75
116.93 59.973 -258.75
117.1 61.551998 -260.04001
117.19 62.105999 -260.67999
117.19 62.308998 -260.67999
117.19 62.497002 -260.67999
117.28 63.348 -261.32999
117.28 63.551998 -261.32999
117.28 63.755001 -261.32999
117.28 63.958 -261.32999
117.28 64.161003 -261.32999
117.37 67.726997 -262
117.37 67.931 -262
117.54 68.453003 -263.29999
117.54 68.656998 -263.29999
117.54 68.862 -263.29999
117.54 69.067001 -263.29999
117.46 69.397003 -262.66
117.46 69.600998 -262.66
120.71 -65.655998 -285.94
119.99 -63.804001 -280.60001
119.29 -61.365002 -275.45999
117.97 -58.868 -265.70001
115.89 13.028 -249.87
116.38 13.422 -253.48
116.38 13.706 -253.49001
116.38 13.903 -253.49001
116.38 14.1 -253.49001
116.15 23.936001 -251.75
116.9 24.667 -257.26999
116.16 25.379999 -251.75999
117.25 26.4 -259.82001
117.25 26.601999 -259.82001
117.25 26.804001 -259.82001
117.43 27.417999 -261.12
117.6 28.371 -262.42001
117.87 30.304001 -264.39999
117.25 30.386 -259.85001
117.96 31.896999 -265.07999
117.96 32.103001 -265.07999
116.75 31.808001 -256.07999
117.87 33.035 -264.41
116.83 32.360001 -256.70999
117.52 34.221001 -261.81
117.44 34.34 -261.16
117.35 34.937 -260.53
117.26 35.458 -259.88
117.44 36.43 -261.17001
117.53 37.424 -261.82999
117.71 39.116001 -263.14999
117.98 39.615002 -265.13
117.62 39.631001 -262.48999
117.36 39.542 -260.54999
117.36 39.73 -260.54999
117.98 40.630001 -265.13
117.02 39.834999 -258.01999
117.8 42.644001 -263.82999
118.07 43.169998 -265.82001
117.28 43.914001 -259.94
117.45 44.535 -261.23001
117.54 46.144001 -261.89001
117.28 47.207001 -259.95001
117.28 47.41 -259.95001
117.72 48.289001 -263.20999
117.81 49.623001 -263.85999
117.72 49.706001 -263.20999
116.94 49.318001 -257.44
117.46 52.539001 -261.26999
117.38 52.816002 -260.63
116.95 52.381001 -257.45001
117.46 53.351002 -261.26999
116.95 52.870998 -257.45999
116.95 53.070999 -257.45999
117.47 54.035999 -261.28
117.47 54.238998 -261.28
117.38 54.715 -260.64001
117.65 56.008999 -262.59
117.65 56.213001 -262.59
117.47 56.141998 -261.29001
117.65 59.351002 -262.60001
117.21 59.918999 -259.39001
117.21 60.119999 -259.39001
117.57 63.912998 -261.98001
117.57 64.116997 -261.98001
117.57 64.32 -261.98001
117.65 64.667 -262.63
117.65 64.871002 -262.63
117.75 65.529999 -263.29999
117.66 67.691002 -262.64999
117.66 67.896004 -262.64999
117.66 68.099998 -262.64999
117.66 69.195999 -262.66
121.04 -65.842003 -286.72
120.31 -63.981998 -281.35001
119.31 -60.629002 -274.01999
116.17 13.059 -250.47
116.42 15.67 -252.3
116.34 16.023001 -251.69
116.43 23.993 -252.35001
117.19 25.603001 -257.91
117.54 26.870001 -260.45999
117.72 28.096001 -261.76999
117.89 28.441 -263.07001
117.89 28.646 -263.07001
118.08 29.496 -264.39999
118.08 29.687 -264.39999
117.54 30.461 -260.48999
118.26 31.976999 -265.75
118.26 32.183998 -265.75
117.73 34.424999 -261.81
117.64 35.023998 -261.17001
117.55 35.544998 -260.53
117.64 36.925999 -261.17999
118 39.214001 -263.81
117.91 39.73 -263.14999
117.65 39.639999 -261.20001
117.65 39.828999 -261.19
117.3 39.932999 -258.64999
117.56 41.035999 -260.56
117.65 41.730999 -261.20999
117.65 41.933998 -261.20999
118.1 42.750999 -264.48999
118.37 43.278999 -266.48999
118.37 43.693001 -266.48999
118.37 44.108002 -266.48999
117.57 44.021999 -260.59
117.74 44.645 -261.88
117.84 46.258999 -262.54001
117.57 47.324001 -260.60001
117.57 47.526001 -260.60001
118.02 48.409 -263.85999
118.11 49.748001 -264.51999
118.02 49.830002 -263.85999
117.57 49.424999 -260.60999
117.23 49.438999 -258.07001
117.76 52.668999 -261.92001
117.67 52.743 -261.26999
117.67 52.946999 -261.26999
117.23 52.508999 -258.07999
117.76 53.483002 -261.92001
117.24 53 -258.09
117.24 53.201 -258.09
117.76 54.169998 -261.92999
117.76 54.373001 -261.92999
117.67 54.849998 -261.28
117.76 55.188 -261.92999
117.94 56.148998 -263.25
117.94 56.353001 -263.25
117.76 56.282001 -261.94
117.86 64.480003 -262.63
117.95 65.031998 -263.29001
118.04 65.693001 -263.95001
118.13 66.060997 -264.62
118.04 66.103996 -263.95001
118.13 66.678001 -264.62
117.95 68.065002 -263.31
117.95 68.268997 -263.31
117.95 69.369003 -263.31
116.44 13.09 -251.06
116.53 15.826 -251.69
117.66 27.094 -259.82999
117.83 27.620001 -261.12
118.19 28.716999 -263.73001
118.19 28.922001 -263.73001
118.19 29.127001 -263.73001
117.83 30.535999 -261.13
118.38 31.485001 -265.07999
117.93 35.111 -261.82001
117.84 35.632999 -261.17001
117.94 37.016998 -261.82999
117.85 37.535 -261.17999
118.3 39.312 -264.47
118.21 39.828999 -263.81
117.94 39.737999 -261.84
117.94 39.926998 -261.84
117.59 40.030998 -259.28
117.85 41.137001 -261.20999
117.94 41.834999 -261.85001
117.94 42.037998 -261.85001
118.4 42.859001 -265.14999
118.67 43.804001 -267.17001
118.67 44.219002 -267.17001
118.58 44.299999 -266.48999
118.67 44.618999 -267.17001
117.86 44.131001 -261.23001
118.13 46.374001 -263.19
117.86 47.441002 -261.23999
117.86 47.644001 -261.23999
118.31 48.530998 -264.51999
118.4 49.872002 -265.19
118.31 49.955002 -264.51999
117.87 49.638 -261.26001
117.52 49.560001 -258.70001
118.05 52.799999 -262.57001
117.96 52.874001 -261.92001
117.96 53.077999 -261.92001
117.52 52.638 -258.70999
118.05 53.707001 -262.57999
117.52 53.130001 -258.73001
117.52 53.331001 -258.73001
118.05 54.304001 -262.57999
118.05 54.508999 -262.57999
117.96 54.986 -261.92999
118.05 55.325001 -262.57999
118.23 56.289001 -263.91
118.23 56.493999 -263.91
118.05 56.421001 -262.59
118.15 59.591999 -263.26999
118.25 66.311996 -263.95001
118.43 66.845001 -265.28
118.25 66.722 -263.95001
118.24 66.913002 -263.95001
118.49 30.507999 -264.39999
118.4 30.636999 -263.73999
118.14 35.721001 -261.82001
118.14 37.627998 -261.82999
118.23 39.837002 -262.48999
118.23 40.027 -262.48999
117.88 40.129002 -259.92001
118.15 41.238998 -261.85001
118.15 41.443001 -261.85001
118.24 41.749001 -262.51001
118.24 41.938999 -262.5
118.24 42.143002 -262.5
118.97 43.915001 -267.84
118.97 44.331001 -267.85001
118.88 44.411999 -267.17001
118.97 44.731998 -267.84
118.15 44.036999 -261.88
118.15 44.240002 -261.88
118.42 44.773998 -263.84
118.42 46.490002 -263.85001
118.15 47.558998 -261.89001
118.61 48.445999 -265.19
118.61 48.652 -265.19
118.7 49.998001 -265.85999
118.61 50.080002 -265.19
118.16 49.761002 -261.91
117.81 49.681 -259.34
118.34 52.931 -263.23001
118.25 53.006001 -262.57001
118.25 53.209999 -262.57001
117.81 52.766998 -259.35001
118.35 53.841 -263.23999
117.81 53.259998 -259.35999
117.81 53.462002 -259.35999
118.34 54.439999 -263.23999
118.35 54.644001 -263.23999
117.81 54.053001 -259.35999
118.26 55.123001 -262.57999
118.35 55.463001 -263.23999
118.53 56.445 -264.57001
118.53 56.634998 -264.57001
118.35 56.562 -263.25
118.44 59.741001 -263.92999
118.27 65.174004 -262.64001
118.54 66.477997 -264.62
118.72 67.014 -265.95001
118.54 66.889 -264.62
118.54 67.095001 -264.62
118.54 67.286003 -264.60999
118.25 36.040001 -261.17001
118.25 37.738998 -261.17999
118.35 39.333 -261.84
118.53 39.936001 -263.14999
118.53 40.125999 -263.14999
118.17 40.228001 -260.56
118.44 41.341999 -262.51001
118.44 41.546001 -262.51001
118.53 41.853001 -263.16
118.53 42.042999 -263.16
118.72 42.548 -264.48999
119.27 44.444 -268.53
119.18 44.525002 -267.84
119.27 44.846001 -268.51999
118.45 44.146 -262.53
118.45 44.349998 -262.53
118.72 44.886002 -264.5
118.63 44.98 -263.84
118.72 46.606998 -264.51001
118.45 47.676998 -262.54001
118.91 48.568001 -265.85999
118.91 48.775002 -265.85999
118.36 48.261002 -261.89999
118.36 49.061001 -261.89999
119 50.124001 -266.53
118.91 50.206001 -265.85999
118.45 49.883999 -262.56
118.1 49.804001 -259.98001
118.1 52.089001 -259.98999
118.55 53.138 -263.23001
118.55 53.341999 -263.23001
118.1 52.896999 -259.98999
118.64 53.974998 -263.89999
118.1 53.390999 -260
118.1 53.594002 -260
118.64 54.591 -263.89999
118.64 54.780998 -263.89999
118.1 54.186001 -260
118.1 54.388 -260
118.55 55.259998 -263.23999
118.64 55.601002 -263.89999
118.83 56.587002 -265.23001
118.83 56.778 -265.23001
118.64 56.702999 -263.91
118.65 58.421001 -263.92001
118.83 59.832001 -265.25
118.74 59.889999 -264.59
118.65 60.139 -263.92999
118.56 65.147003 -263.29999
118.56 65.336998 -263.29999
119.02 66.560997 -266.62
119.02 67.182999 -266.62
118.84 67.056999 -265.28
118.84 67.264 -265.28
118.84 67.545998 -265.29001
119.03 68.087997 -266.63
118.55 38.723 -261.84
118.64 39.43 -262.48999
118.46 40.327999 -261.20999
118.73 41.445 -263.16
118.73 41.648998 -263.16
118.83 41.958 -263.82001
118.83 42.147999 -263.82001
119.58 44.556999 -269.20999
119.48 44.638 -268.51999
119.58 44.959999 -269.20999
118.74 44.256001 -263.17999
118.74 44.460999 -263.17999
119.02 44.999001 -265.17001
118.92 45.092999 -264.5
119.11 45.523998 -265.82999
119.11 45.730999 -265.82999
119.2 46.051998 -266.5
119.02 46.723999 -265.17999
118.74 47.796001 -263.19
119.21 48.691002 -266.53
119.21 48.897999 -266.53
118.66 48.381001 -262.54999
118.66 49.182999 -262.54999
119.3 50.250999 -267.20001
119.21 50.333 -266.53
118.39 49.926998 -260.62
118.39 52.216999 -260.63
118.84 53.476002 -263.88
118.94 53.904999 -264.56
118.94 54.110001 -264.56
118.39 53.522999 -260.64001
118.39 53.726002 -260.64001
118.94 54.727001 -264.56
118.94 54.917999 -264.56
118.39 54.319 -260.64001
118.39 54.521999 -260.64001
118.85 55.397999 -263.89999
118.94 55.832001 -264.57001
119.13 56.729 -265.89999
119.13 56.921001 -265.89999
118.94 56.845001 -264.57001
118.94 58.567001 -264.57999
118.85 59.039001 -263.92001
118.86 65.5 -263.95001
119.33 66.728996 -267.29001
119.14 67.225998 -265.95001
119.14 67.432999 -265.95001
119.14 67.717003 -265.95999
119.33 68.261002 -267.29999
119.77 -59.599998 -269.76999
118.76 40.428001 -261.85001
119.03 41.548 -263.82001
119.03 41.752998 -263.82001
119.12 42.063 -264.48001
119.12 42.254002 -264.48001
119.79 44.768002 -269.20999
119.04 44.367001 -263.84
119.04 44.571999 -263.84
119.32 45.112 -265.82999
119.22 45.206001 -265.17001
119.41 45.639 -266.5
119.41 45.846001 -266.5
119.5 46.168999 -267.17999
119.5 46.361 -267.17999
119.32 46.841 -265.84
119.79 47.640999 -269.23001
119.7 48.549999 -268.54999
119.04 48.006001 -263.85999
119.51 48.813999 -267.20001
119.51 49.021999 -267.20001
118.95 48.501999 -263.20999
119.6 50.377998 -267.88
118.68 50.049999 -261.26001
118.68 52.361 -261.28
119.24 54.040001 -265.22
119.24 54.245998 -265.22
118.69 53.655998 -261.29001
118.69 53.859001 -261.29001
119.24 54.865002 -265.22
119.24 55.056 -265.22
118.69 54.453999 -261.28
118.69 54.657001 -261.28
119.14 55.536999 -264.56
119.24 55.972 -265.23001
119.43 56.872002 -266.57001
119.43 57.063999 -266.57001
119.24 56.987999 -265.23001
119.06 58.631001 -263.92001
119.06 58.835999 -263.92001
119.15 59.187 -264.57999
118.87 58.956001 -262.60001
118.88 59.66 -262.62
118.97 61.019001 -263.26999
119.16 65.473 -264.62
119.16 65.664001 -264.62
119.63 66.899002 -267.97
119.44 67.396004 -266.62
119.44 67.695 -266.63
119.63 68.240997 -267.98001
119.63 68.433998 -267.98001
119.35 68.133003 -265.95999
120.08 -59.758999 -270.45999
119.05 40.528 -262.5
119.33 41.858002 -264.48001
119.62 45.226002 -266.5
119.52 45.32 -265.82999
119.71 45.754002 -267.17999
119.71 45.962002 -267.17999
119.81 46.285999 -267.85999
119.81 46.479 -267.85001
119.81 46.778999 -267.87
119.71 46.868999 -267.19
119.62 46.959999 -266.51999
120.1 47.763 -269.92001
120.1 47.973 -269.92001
120 48.48 -269.23001
120 48.673 -269.23001
119.34 48.125999 -264.51999
119.81 48.938 -267.88
119.81 49.146 -267.88
119.25 48.623001 -263.85999
118.97 50.174 -261.91
118.98 52.490002 -261.92001
119.53 53.464001 -265.88
119.54 54.175999 -265.89001
119.54 54.382999 -265.89001
118.98 53.789001 -261.92999
118.98 53.992001 -261.92999
119.54 55.002998 -265.89001
119.54 55.195 -265.89001
118.98 54.589001 -261.92999
118.98 54.792 -261.92999
119.44 55.675999 -265.22
119.54 56.112999 -265.89999
119.73 57.015999 -267.25
119.73 57.223999 -267.25
119.54 57.132 -265.89999
119.35 58.778 -264.57999
119.35 58.983002 -264.57999
119.73 60.285999 -267.26999
119.17 59.807999 -263.26999
119.26 60.966999 -263.92999
119.46 65.638 -265.28
119.46 65.844002 -265.28
119.93 67.069 -268.64999
119.74 67.567001 -267.29001
119.74 67.866997 -267.29999
119.94 68.414001 -268.66
119.93 68.608002 -268.66
119.65 68.305 -266.63
122.59 -65.025002 -286.67999
121.72 -62.339001 -280.57001
120.02 45.869999 -267.85999
120.02 46.078999 -267.85999
120.11 46.597 -268.54001
120.11 46.897999 -268.54999
120.02 46.987999 -267.87
119.92 47.077999 -267.19
120.41 48.096001 -270.60999
120.21 48.062 -269.23001
120.21 48.271999 -269.23001
120.31 48.604 -269.92001
120.31 48.798 -269.92001
119.64 48.247002 -265.19
120.12 49.062 -268.56
120.12 49.271 -268.56
119.55 48.744999 -264.51999
119.27 50.299 -262.56
119.27 52.620998 -262.57001
119.84 53.598999 -266.54999
119.74 53.673 -265.88
119.28 53.310001 -262.57999
119.84 54.313 -266.56
119.84 54.52 -266.56
119.28 53.922001 -262.57999
119.28 54.125999 -262.57999
119.84 55.141998 -266.56
119.84 55.348999 -266.56
119.28 54.724998 -262.57999
119.28 54.929001 -262.57999
119.75 55.909 -265.89999
119.84 56.255001 -266.57001
120.03 57.160999 -267.92001
120.03 57.368999 -267.92001
119.84 57.276001 -266.57001
120.04 60.438999 -267.94
119.47 59.958 -263.92999
119.56 61.118999 -264.59
119.76 65.803001 -265.95001
119.76 66.010002 -265.95001
120.24 67.239998 -269.34
120.05 67.830002 -267.98001
120.05 68.039001 -267.98001
120.24 68.588997 -269.35001
120.24 68.782997 -269.35001
119.95 68.477997 -267.29999
122.81 -65.272003 -286.67999
120.32 47.108002 -268.54999
120.23 47.198002 -267.87
120.52 48.185001 -269.92001
120.52 48.395 -269.92001
119.94 48.368999 -265.85999
120.42 49.187 -269.23999
119.85 48.867001 -265.19
119.94 50.306 -265.87
119.57 50.424 -263.22
119.57 52.751999 -263.23001
120.14 53.735001 -267.22
120.04 53.807999 -266.54999
119.57 53.443001 -263.23999
120.14 54.450001 -267.23001
120.14 54.658001 -267.23001
119.57 54.056999 -263.23999
119.57 54.261002 -263.23999
120.14 55.280998 -267.23999
120.14 55.488998 -267.23999
119.57 54.861 -263.23999
119.57 55.066002 -263.23999
120.05 56.049999 -266.57001
120.14 56.396999 -267.25
120.34 57.306 -268.60001
120.34 57.514999 -268.60999
120.14 57.421001 -267.23999
120.34 60.592999 -268.63
119.77 60.108002 -264.59
119.87 61.365002 -265.26001
120.06 65.969002 -266.62
120.06 66.176003 -266.62
120.55 68.041 -270.03
120.35 68.002998 -268.66
120.35 68.211998 -268.66
120.55 68.764 -270.04001
120.55 68.973999 -270.04001
120.24 48.284 -266.53
120.24 48.491001 -266.53
120.15 48.990002 -265.85999
120.15 49.196999 -265.85999
120.15 49.403 -265.85999
120.15 49.610001 -265.85999
120.25 50.432999 -266.54001
120.25 50.639999 -266.54001
120.25 50.847 -266.54001
119.87 50.549999 -263.87
120.44 51.518002 -267.89001
120.44 51.726002 -267.89001
119.87 52.883999 -263.89001
120.44 53.886002 -267.89999
120.35 53.944 -267.22
119.87 53.576 -263.89999
120.45 54.588001 -267.91
120.45 54.797001 -267.91
119.87 54.192001 -263.89999
119.87 54.396999 -263.89999
120.45 55.421001 -267.91
120.45 55.630001 -267.91
119.87 54.998001 -263.89999
119.87 55.202999 -263.89999
120.35 56.191002 -267.25
120.45 56.540001 -267.92001
120.64 57.452 -269.29001
120.64 57.661999 -269.29001
120.45 57.566002 -267.92001
120.45 59.325001 -267.92999
120.07 59.433998 -265.25
120.65 60.747002 -269.31
120.07 60.258999 -265.25
120.17 61.519001 -265.92999
120.37 66.136002 -267.29999
120.37 66.344002 -267.29999
120.85 67.584 -270.72
120.85 68.216003 -270.72
120.66 68.176003 -269.35001
120.66 68.386002 -269.35001
121.32 -60.404999 -273.25
120.55 48.405998 -267.20001
120.55 48.612999 -267.20001
120.45 49.113998 -266.53
120.45 49.320999 -266.53
120.45 49.528 -266.53
120.45 49.735001 -266.53
120.55 50.560001 -267.20999
120.55 50.768002 -267.20999
120.55 50.976002 -267.20999
120.17 50.676998 -264.54001
120.75 51.648998 -268.57001
120.75 51.858002 -268.57001
120.17 53.015999 -264.54999
120.75 54.022999 -268.57999
120.65 54.174 -267.91
120.17 53.710999 -264.56
120.75 54.727001 -268.59
120.75 54.936001 -268.59
120.17 54.327999 -264.56
120.17 54.533001 -264.56
120.75 55.562 -268.59
120.75 55.771 -268.59
120.17 55.136002 -264.56
120.18 55.432999 -264.57001
120.66 56.334 -267.92001
120.76 56.683998 -268.60001
120.95 57.598999 -269.98001
120.95 57.808998 -269.98001
120.76 57.728001 -268.60999
120.66 58.285999 -267.92999
120.66 58.702999 -267.92999
120.76 59.476002 -268.62
120.66 60.237999 -267.94
120.96 60.903 -270
120.37 60.410999 -265.92001
120.47 61.674999 -266.60001
120.67 66.304001 -267.97
120.67 66.512001 -267.97
121.07 67.392998 -270.72
121.17 67.758003 -271.41
121.07 67.797997 -270.72
120.97 67.837997 -270.03
120.97 68.140999 -270.04001
120.97 68.350998 -270.04001
120.97 68.560997 -270.04001
123.03 -63.048 -283.57001
121.64 -60.569 -273.95999
120.76 49.445999 -267.20001
120.76 49.653 -267.20001
120.76 49.861 -267.20001
120.86 50.896999 -267.89001
120.86 51.105 -267.89001
120.47 50.804001 -265.20001
121.06 51.780998 -269.26001
121.06 51.990002 -269.26001
120.86 51.938 -267.89001
120.86 52.431999 -267.89999
120.96 52.771999 -268.57999
120.96 52.980999 -268.57999
120.86 53.473 -267.89999
120.47 53.148998 -265.20999
121.06 54.160999 -269.26999
120.96 54.312 -268.59
120.47 53.846001 -265.22
121.06 54.867001 -269.28
121.06 55.076 -269.28
120.47 54.464001 -265.22
120.47 54.669998 -265.22
121.06 55.703999 -269.28
121.06 55.912998 -269.28
120.47 55.289001 -265.22
120.48 55.573002 -265.23001
120.96 56.477001 -268.60001
121.06 56.827999 -269.29001
121.26 57.747002 -270.67001
121.26 57.957001 -270.67001
121.06 57.875 -269.29001
120.97 58.433998 -268.62
120.97 58.852001 -268.62
121.07 59.627998 -269.29999
120.87 59.522999 -267.92999
120.97 59.973999 -268.63
120.68 59.734001 -266.59
120.97 60.390999 -268.63
121.27 61.058998 -270.69
121.17 61.115002 -270
120.68 60.563 -266.59
120.98 66.472 -268.66
120.98 66.681 -268.66
121.38 67.566002 -271.42001
121.28 68.011002 -270.72
118.42 -57.063 -250.42
123.36 -63.224998 -284.34
123.25 -62.827999 -283.57001
120.77 50.931999 -265.87
121.17 52.07 -268.57001
121.17 52.564999 -268.57999
121.27 52.907001 -269.26999
121.27 53.116001 -269.26999
120.97 52.925999 -267.22
120.97 53.133999 -267.22
121.17 53.609001 -268.57999
120.77 53.283001 -265.88
121.27 54.450001 -269.28
120.78 53.980999 -265.89001
121.37 55.007 -269.97
121.37 55.216999 -269.97
120.78 54.601002 -265.89001
120.78 54.807999 -265.89001
121.37 55.846001 -269.97
121.37 56.056 -269.97
120.78 55.428001 -265.89001
120.78 55.712002 -265.89999
121.27 56.620998 -269.29001
121.37 56.973999 -269.98001
121.57 57.895 -271.37
121.57 58.105999 -271.37
121.37 58.022999 -269.98001
121.38 59.779999 -269.98999
121.18 59.688999 -268.62
120.98 59.884998 -267.26999
121.28 60.544998 -269.31
121.58 61.216 -271.39001
121.48 61.271999 -270.69
120.98 60.716 -267.26999
121.59 66.724998 -271.42001
121.59 66.935997 -271.42001
121.29 66.641998 -269.34
121.29 66.850998 -269.34
123.69 -63.403 -285.10001
123.58 -63.005001 -284.32999
121.08 51.061001 -266.54001
121.47 52.202999 -269.26001
121.48 52.699001 -269.26999
121.28 53.060001 -267.89999
121.28 53.269001 -267.89999
121.48 53.745998 -269.26999
121.08 53.417999 -266.54999
121.58 54.604 -269.97
121.08 54.117001 -266.56
121.68 55.358002 -270.66
121.08 54.738998 -266.56
121.08 54.945999 -266.56
121.68 55.988998 -270.66
121.68 56.200001 -270.66
121.09 55.66 -266.57001
121.08 55.853001 -266.57001
121.58 56.765999 -269.98001
121.68 57.119999 -270.67001
121.89 58.043999 -272.06
121.89 58.256001 -272.06
121.68 58.172001 -270.67001
121.19 58.979 -267.26001
121.69 59.932999 -270.67999
121.29 60.036999 -267.94
121.59 60.700001 -270
121.89 61.373001 -272.09
121.79 61.429001 -271.39001
121.29 60.870998 -267.94
121.8 66.306 -271.42001
121.8 66.516998 -271.42001
121.9 66.897003 -272.10999
121.9 67.108002 -272.10999
121.6 66.811996 -270.03
121.6 67.022003 -270.03
124.03 -63.811001 -285.87
124.03 -63.575001 -285.88
123.92 -63.181999 -285.10001
121.59 53.195 -268.57999
121.59 53.403999 -268.57999
121.39 53.553001 -267.22
121.39 54.254002 -267.23001
121.39 54.876999 -267.23999
121.39 55.084999 -267.23999
121.39 55.800999 -267.25
121.39 55.993999 -267.25
121.89 56.910999 -270.67001
122 57.265999 -271.35999
121.39 56.618 -267.25
122.2 58.405998 -272.76999
122 58.320999 -271.37
121.49 59.127998 -267.92999
121.8 60.088001 -270
121.9 60.435001 -270.69
121.6 60.189999 -268.63
121.9 60.855999 -270.69
122.21 61.532001 -272.79001
122.1 61.587002 -272.09
121.6 61.025002 -268.63
121.7 62.094002 -269.32001
121.7 62.304001 -269.32001
122.11 66.185997 -272.10999
122.11 66.476997 -272.10999
122.11 66.688004 -272.10999
121.91 66.984001 -270.72
121.91 67.194 -270.72
124.37 -63.992001 -286.64999
124.25 -63.360001 -285.87
124.14 -62.967999 -285.10001
121.7 54.391998 -267.91
121.7 55.016998 -267.91
121.7 55.224998 -267.91
121.7 55.943001 -267.92001
121.7 56.761002 -267.92001
122.21 59.035 -271.38
