# .PCD v0.7 - Point Cloud Data file format
VERSION 0.7
FIELDS x y z
SIZE 4 4 4
TYPE F F F
COUNT 1 1 1
WIDTH 1687
HEIGHT 1
VIEWPOINT 0 0 0 1 0 0 0
POINTS 1687
DATA ascii
67.394997 42.764999 -274.07001
68.940002 38.666 -248.86
67.57 42.875999 -274.78
67.609001 43.050999 -274.07999
67.609001 43.264 -274.07999
67.609001 43.438999 -274.07999
67.570999 43.764999 -274.79001
69.102997 38.757 -249.45
67.748001 43.061001 -275.51001
67.785004 43.162998 -274.79001
67.785004 43.375999 -274.79001
67.785004 43.551998 -274.79001
67.747002 43.879002 -275.51001
67.747002 44.092999 -275.51001
69.266998 38.848999 -250.03999
67.925003 43.173 -276.23001
67.925003 44.853001 -276.23001
69.267998 40.830002 -250.05
67.924004 45.243999 -276.22
69.490997 35.292999 -249.45
69.460999 35.57 -250.03999
69.460999 35.764999 -250.03999
69.431 38.550999 -250.64
69.431 38.745998 -250.64
69.431 38.941002 -250.64
68.102997 43.285999 -276.95999
69.431999 40.925999 -250.64
68.139 45.459999 -276.22
68.139999 46.390999 -276.23001
69.597 37.698002 -251.24001
69.597 37.893002 -251.24001
69.597 38.089001 -251.24001
69.596001 38.838001 -251.23
68.281998 43.400002 -277.67999
68.281998 44.048 -277.69
68.281998 44.224998 -277.67999
68.281998 44.441002 -277.67999
69.597 41.023998 -251.24001
68.319 46.513 -276.95999
68.318001 46.689999 -276.95001
68.318001 46.904999 -276.95001
68.209 47.491001 -279.14999
68.209 47.708 -279.14999
69.763 37.984001 -251.84
69.763 38.179001 -251.84
68.461998 44.341999 -278.41
68.461998 44.557999 -278.41
68.461998 44.775002 -278.41
68.461998 44.991001 -278.41
68.461998 45.208 -278.41
69.763 41.122002 -251.84
68.460999 45.602001 -278.41
68.460999 46.035 -278.41
68.460999 46.250999 -278.41
68.389999 47.617001 -279.89001
68.389999 47.834999 -279.89001
68.426003 47.925999 -279.14999
68.678001 45.82 -278.41
68.641998 46.157001 -279.14999
68.641998 46.374001 -279.14999
68.570999 47.743999 -280.64001
68.570999 47.962002 -280.64001
68.607002 48.053001 -279.89001
68.535004 48.526001 -281.38
68.679001 48.235001 -278.42001
68.678001 48.412998 -278.41
68.499001 49.272999 -282.13
68.570999 49.667999 -280.63
68.823997 46.278999 -279.89001
68.823997 46.497002 -279.89001
68.861 46.665001 -279.14999
68.861 46.882 -279.16
68.861 47.098999 -279.16
68.860001 47.278 -279.14999
68.753998 47.870998 -281.38
68.753998 48.089001 -281.38
68.790001 48.181 -280.64001
68.719002 48.654999 -282.14001
68.860001 48.362 -279.14999
68.860001 48.541 -279.14999
68.681999 49.404999 -282.89001
68.753998 49.799999 -281.38
68.718002 50.151001 -282.13
68.938004 47.999001 -282.14001
68.938004 48.217999 -282.14001
68.973 48.308998 -281.38
68.903 48.785999 -282.89001
69.042999 48.491001 -279.89001
69.042 48.669998 -279.89001
68.866997 49.537998 -283.64999
69.008003 49.234001 -280.63
68.938004 49.714001 -282.13
68.938004 49.932999 -282.13
68.902 50.285999 -282.89001
68.903 50.580002 -282.89999
68.973 50.493 -281.38
69.008003 50.577999 -280.64001
69.008003 50.796001 -280.64001
69.123001 48.347 -282.89001
69.156998 48.438 -282.14001
69.087997 48.917 -283.64999
69.225998 48.618999 -280.64001
69.225998 48.799 -280.63
69.052002 49.671001 -284.41
69.191002 49.365002 -281.38
69.122002 49.847 -282.89001
69.122002 50.067001 -282.89001
69.087997 50.494999 -283.66
69.087997 50.716 -283.66
69.157997 50.627998 -282.14001
69.192001 50.713001 -281.38
69.192001 50.931 -281.38
69.411003 48.967999 -281.38
69.238998 49.805 -285.17999
69.375999 49.497002 -282.13
69.307999 49.980999 -283.64999
69.307999 50.202 -283.64999
69.275002 50.631001 -284.42001
69.275002 50.852001 -284.42001
69.343002 50.763 -282.89001
69.376999 50.848 -282.14001
69.376999 51.068001 -282.14001
69.376999 51.286999 -282.14001
69.308998 51.779999 -283.64999
69.376999 51.724998 -282.14001
69.426003 49.939999 -285.95001
69.561996 49.630001 -282.89001
69.495003 50.116001 -284.41
69.496002 50.410999 -284.42001
69.461998 50.768002 -285.19
69.461998 50.990002 -285.19
69.528999 50.900002 -283.64999
69.563004 50.984001 -282.89001
69.563004 51.203999 -282.89001
69.563004 51.424 -282.89001
69.495003 51.918999 -284.42001
69.563004 51.863998 -282.89001
69.563004 52.084 -282.89001
69.716003 51.036999 -284.42001
69.75 51.341999 -283.64999
69.75 51.562 -283.64999
69.682999 52.060001 -285.19
69.75 52.002998 -283.64999
69.75 52.223999 -283.64999
69.749001 52.404999 -283.64999
69.781998 52.486 -282.89001
69.938004 51.701 -284.42001
69.872002 52.201 -285.95999
69.938004 52.143002 -284.42001
69.938004 52.363998 -284.42001
69.936996 52.546001 -284.41
69.970001 52.626999 -283.64999
69.903999 53.573002 -285.17999
70.095001 53.793999 -285.95999
70.061996 54.160999 -286.73999
70.285004 53.939999 -286.73999
70.252998 54.308998 -287.51999
70.252998 54.532001 -287.51999
70.379997 55.613998 -289.89001
71.361 58.022999 -293.92999
63.445 -0.70613998 -244.85001
63.401001 0.21690001 -245.42
63.591999 -0.70778 -245.42
63.826 -12.642 -244.86
63.610001 5.9677 -247.72
63.610001 6.1602001 -247.72
64.061996 -4.8153 -249.48
64.212997 -3.0775001 -250.07001
64.127998 3.7144001 -251.25999
64.365997 -2.1108999 -250.66
64.364998 -1.9484 -250.66
64.364998 -1.7536 -250.66
64.364998 2.1099 -250.64999
64.280998 3.7232001 -251.86
64.433998 5.0725002 -252.45
64.433998 5.2687001 -252.45
64.475998 5.4168 -251.85001
66.182999 14.885 -227.41
66.217003 15.734 -226.92
66.217003 15.884 -226.92
64.588997 3.7411001 -253.06
64.754997 4.4429002 -250.64999
64.588997 5.0847001 -253.06
64.588997 5.2813001 -253.06
64.629997 5.4298 -252.45
64.672997 6.4587002 -251.86
64.629997 6.6396999 -252.45
64.629997 8.1761999 -252.45
64.629997 8.3724003 -252.45
66.325996 14.917 -227.89999
66.359001 15.918 -227.41
66.469002 14.95 -228.39999
66.502998 15.802 -227.89999
66.502998 15.952 -227.89999
66.469002 16.52 -228.39
66.502998 17.051001 -227.91
64.866997 19.082001 -251.84
66.502998 17.405001 -227.91
66.502998 17.582001 -227.91
66.470001 20.115999 -228.39999
64.982002 10.947 -253.05
64.899002 13.374 -254.28
66.612999 14.982 -228.89
66.647003 15.836 -228.39999
66.647003 15.987 -228.39
66.612999 16.556 -228.89
66.647003 17.087999 -228.39999
66.758003 15.015 -229.39
66.791 15.87 -228.89
66.791 16.021 -228.89
65.253998 14.758 -254.88
66.903999 15.047 -229.89
66.936996 15.905 -229.39
66.935997 16.056 -229.39
67.049004 15.08 -230.39
67.082001 15.939 -229.89
67.082001 16.091 -229.89
65.289001 18.271999 -257.37
65.772003 -24.080999 -253.08
65.772003 -23.884001 -253.08
65.772003 -23.688 -253.08
65.772003 -21.326 -253.08
67.195999 15.113 -230.89
65.529999 17.062 -256.73999
67.228996 15.974 -230.39
67.227997 16.125999 -230.39
65.448997 18.316999 -258
65.530998 18.891001 -256.75
65.93 -24.139 -253.69
65.93 -23.941999 -253.69
65.93 -23.35 -253.69
65.929001 -23.184999 -253.67999
67.375 16.160999 -230.89
65.609001 18.362 -258.63
67.343002 16.737 -231.39999
65.691002 18.937 -257.38
66.088997 -24.197001 -254.3
66.088997 -23.999001 -254.3
66.087997 -23.240999 -254.28999
67.523003 16.197001 -231.39999
65.769997 18.407 -259.26001
67.490997 16.774 -231.91
65.850998 18.983 -258
67.059998 -29.424 -251.27
67.531998 -33.144001 -246.56
67.498001 -33.025002 -247.14
68.210999 29.621 -235.00999
68.210999 29.802999 -235.00999
67.656998 -33.102001 -247.72
67.449997 -29.694 -251.25999
67.380997 -29.565001 -252.47
68.547997 34.151001 -238.73
68.200996 -34.769001 -248.3
68.299004 -34.285999 -246.57001
68.168999 -33.457001 -248.89
68.136002 -33.367001 -249.47
68.703003 34.571999 -239.27
68.672997 34.903 -239.82001
68.458 -35.199001 -247.13
68.458 -34.431 -247.13
68.394997 -33.582001 -248.3
68.330002 -33.535999 -249.48
68.296997 -33.445999 -250.07001
68.799004 35.249001 -240.92
67.427002 39.278999 -265.79999
68.587997 -33.973 -248.3
67.597 39.377998 -266.47
67.596001 39.549 -266.45999
67.596001 39.757 -266.45999
67.596001 39.964001 -266.45999
68.749001 -34.053001 -248.89
68.718002 -33.741001 -249.48
67.767998 39.478001 -267.14001
68.848999 -35.488998 -250.66
68.817001 -35.373001 -251.25
68.848999 -35.099998 -250.66
68.982002 -35.457001 -251.85001
69.013 -35.182999 -251.25
69.519997 29.336 -241.47
69.519997 29.524 -241.47
68.040001 41.904999 -269.87
68.143997 42.511002 -271.95999
68.216003 42.505001 -270.57001
68.390999 42.825001 -271.26001
68.600998 43.210999 -271.26001
68.956001 44.493 -272.66
68.920998 44.783001 -273.35999
70.432999 34.068001 -245.97
70.377998 36.348 -247.12
70.598 35.881001 -246.53999
70.570999 36.155998 -247.12
70.543999 36.432999 -247.7
69.347 45.708 -273.37
69.314003 46.250999 -274.07999
69.314003 46.426998 -274.07999
69.314003 46.639999 -274.07999
69.314003 46.853001 -274.07999
69.280998 47.401001 -274.79001
69.280998 47.615002 -274.79001
69.279999 47.791 -274.79001
70.790001 35.335999 -246.55
70.790001 35.528 -246.55
70.763 35.772999 -247.12
70.763 35.965 -247.12
70.736 36.241001 -247.7
70.709 36.519001 -248.28
69.394997 43.076 -276.95001
69.460999 47.916 -275.5
69.578003 43.188999 -277.67999
69.578003 43.404999 -277.67999
69.676003 49.061001 -275.51001
69.676003 49.275002 -275.51001
69.676003 49.452 -275.51001
69.676003 49.666 -275.51001
69.889 41.319 -275.5
69.857002 42.285 -276.22
69.825996 42.683998 -276.95999
69.825996 42.862 -276.95001
69.761002 43.303001 -278.41
69.761002 43.519001 -278.41
69.761002 46.113998 -278.42001
69.825996 50.355999 -276.95001
69.945999 46.236 -279.14999
69.945999 50.970001 -279.14999
69.945999 51.187 -279.14999
70.130997 48.061001 -279.89001
70.317001 48.188999 -280.63
70.378998 52.02 -279.14999
70.348 52.373001 -279.89001
70.348999 52.665001 -279.89999
70.348999 52.882999 -279.89999
70.597 47.720001 -279.14999
70.504997 48.317001 -281.38
70.566002 48.280998 -279.89001
70.535004 49.023998 -280.63
70.567001 53.102001 -279.89999
70.723 49.154999 -281.38
70.694 49.578999 -282.14001
70.783997 53.500999 -279.89001
70.753998 53.860001 -280.64001
70.883003 49.712002 -282.89001
70.943001 49.667999 -281.39001
70.883003 51.652 -282.89001
70.943001 54.002998 -281.39001
71.072998 51.791 -283.64999
71.072998 52.012001 -283.64999
71.132004 54.146999 -282.14001
71.072998 54.654999 -283.64999
71.132004 54.585999 -282.14001
71.322998 51.216 -282.89001
71.322998 51.435001 -282.89001
71.264999 51.931 -284.42001
71.264999 52.152 -284.42001
71.264999 54.803001 -284.42001
71.322998 54.731998 -282.89001
71.322998 54.952 -282.89001
71.457001 52.292999 -285.17999
71.486 53.074001 -284.42001
71.486 53.516998 -284.42001
71.486 53.737999 -284.42001
71.457001 54.951 -285.19
71.514999 54.879002 -283.64999
71.514999 55.099998 -283.64999
71.486 55.467999 -284.42001
71.651001 52.433998 -285.95999
71.708 52.855 -284.42001
71.679001 53.217999 -285.19
71.68 53.660999 -285.19
71.68 53.882999 -285.19
71.708 53.959999 -284.42001
71.707001 54.584999 -284.42001
71.651001 55.099998 -285.95999
71.707001 55.027 -284.42001
71.707001 55.248001 -284.42001
71.679001 55.617001 -285.19
71.652 56.470001 -285.95999
71.901001 54.731998 -285.19
71.845001 55.249001 -286.73999
71.901001 55.175999 -285.19
71.901001 55.396999 -285.19
71.873001 55.768002 -285.95999
71.873001 55.951 -285.95001
71.929001 55.950001 -284.42001
72.096001 55.325001 -285.95999
72.096001 55.547001 -285.95999
72.068001 55.918999 -286.73999
72.068001 56.103001 -286.73001
72.123001 56.102001 -285.19
72.319 56.254002 -285.95999
72.238998 57.157001 -288.31
73.011002 59.723999 -292.29001
63.016998 -56.597 -236.14
62.714001 -57.262001 -239.91
62.888 -56.595001 -237.74001
62.856998 -57.401001 -240.45
63.029999 -56.729 -238.28
63 -57.907001 -241
63.257999 -56.985001 -237.74001
63.144001 -58.046001 -241.55
63.400002 -57.120998 -238.28
63.289001 -58.186001 -242.11
63.459 -57.508999 -239.89999
63.289001 -57.816002 -242.10001
63.332001 -57.506001 -241.55
63.433998 -58.327 -242.66
63.604 -57.639 -240.45
63.477001 -57.638 -242.10001
63.832001 -58.083 -239.89999
63.580002 -58.654999 -243.22
63.580002 -58.467999 -243.22
63.951 -18.237 -238.23
63.909 -17.747 -238.75999
63.699001 8.7729998 -241.48
63.657001 8.9828997 -242.03
63.977001 -58.223 -240.44
63.727001 -58.797001 -243.78
63.727001 -58.616001 -243.78
63.895 -57.917 -241.53999
64.123001 -58.362999 -240.99001
63.874001 -58.941002 -244.34
63.874001 -58.750999 -244.34
64.269997 -58.502998 -241.53999
64.269997 -58.320999 -241.53999
64.022003 -58.894001 -244.91
64.022003 -58.707001 -244.91
64.335999 -59.273998 -243.21001
64.578003 -58.325001 -239.89
64.417 -58.645 -242.09
64.328003 14.063 -243.14
64.287003 15.456 -243.71001
64.287003 15.645 -243.71001
64.724998 -58.465 -240.44
64.565002 -58.786999 -242.64999
64.565002 -58.596001 -242.64999
65.099998 -25.627001 -237.69
65.176003 -24.629999 -236.62
65.176003 -24.445999 -236.62
64.584999 17.747999 -244.83
64.584999 18.733 -244.83
64.543999 19.698999 -245.39999
65.247002 -25.684999 -238.22
65.247002 -25.5 -238.22
65.321999 -24.686001 -237.14999
65.321999 -24.500999 -237.14999
66.445 17.056999 -221.22
65.470001 -27.489 -237.67999
65.470001 -26.347 -237.69
65.470001 -26.190001 -237.67999
65.469002 -24.740999 -237.67999
65.469002 -24.556999 -237.67999
66.584 17.093 -221.67999
66.452003 18.431 -223.56
66.452003 18.605 -223.56
66.517998 18.844999 -222.61
66.517998 19.018 -222.61
66.518997 19.254 -222.62
66.518997 19.427 -222.62
66.518997 19.6 -222.62
64.846001 21.900999 -246.55
64.846001 22.093 -246.55
66.518997 20.093 -222.62
66.723999 17.128 -222.14999
66.657997 18.885 -223.08
64.998001 21.983999 -247.13
64.997002 22.143999 -247.12
66.864998 17.165001 -222.62
65.150002 22.035999 -247.71001
65.150002 22.195999 -247.7
67.005997 17.201 -223.09
65.304001 22.087 -248.28999
65.303001 22.247999 -248.28999
67.148003 17.237 -223.56
65.458 22.139 -248.87
65.457001 22.301001 -248.87
65.613998 -5.7776999 -249.48
65.612999 -5.6153002 -249.47
65.652 -2.3150001 -248.88
65.612999 0.36693001 -249.47
67.291 17.274 -224.03
65.612 22.191999 -249.46001
65.612 22.354 -249.46001
65.768997 -5.9857001 -250.07001
65.768997 -5.7914 -250.07001
65.768997 -5.6286001 -250.06
65.846001 -5.0279999 -248.88
65.767998 0.3678 -250.06
65.806999 0.75208002 -249.47
65.767998 4.2244 -250.06
65.767998 4.8074002 -250.06
67.433998 17.311001 -224.50999
65.767998 22.243999 -250.05
65.766998 22.406 -250.05
65.925003 -10.126 -250.66
65.925003 -9.9313002 -250.66
65.962997 -7.7715001 -250.06
65.925003 -5.8051 -250.66
66.000999 -5.0398998 -249.47
66.000999 1.1372 -249.47
67.577003 17.347 -224.99001
65.924004 22.297001 -250.64999
65.922997 22.459999 -250.64
66.082001 -10.15 -251.25
66.082001 -9.9549999 -251.25
67.722 17.385 -225.47
66.081001 22.35 -251.24001
66.080002 22.513 -251.24001
66.315002 -11.076 -250.66
66.315002 -10.881 -250.66
66.314003 -10.717 -250.66
66.314003 -10.328 -250.66
66.238998 -10.174 -251.85001
66.238998 -9.9786997 -251.85001
66.237999 8.3344002 -251.84
66.237999 8.5300999 -251.84
67.866997 17.422001 -225.95
66.237999 22.403 -251.84
66.237999 22.566999 -251.84
66.472 -13.088 -251.25
66.320999 12.935 -253.66
68.012001 17.459 -226.42999
66.397003 22.457001 -252.45
66.396004 22.621 -252.44
66.358002 30.283001 -253.03999
66.32 30.552999 -253.64999
66.32 30.75 -253.64999
66.244003 31.097 -254.88
66.320999 31.212 -253.66
66.630997 -14.263 -251.86
66.630997 -13.315 -251.85001
66.630997 -13.12 -251.85001
66.481003 12.967 -254.27
66.517998 13.131 -253.66
68.157997 17.497 -226.92
66.556 22.511 -253.05
66.555 22.674999 -253.05
66.516998 30.356001 -253.64999
66.480003 30.627001 -254.25999
66.480003 30.823999 -254.25999
66.403999 31.172001 -255.49001
66.481003 31.287001 -254.27
66.480003 31.452 -254.27
66.517998 31.968 -253.66
66.791 -16.261 -252.46001
68.305 17.534 -227.41
66.716003 22.565001 -253.66
66.714996 22.729 -253.64999
66.678001 30.429001 -254.25999
66.639999 30.701 -254.88
66.639999 30.899 -254.88
66.640999 31.165001 -254.88
66.678001 31.65 -254.27
66.678001 31.847 -254.27
66.678001 32.044998 -254.27
66.678001 32.242001 -254.27
66.678001 33 -254.25999
66.678001 33.196999 -254.25999
68.125 30.264999 -230.39
68.154999 30.378 -229.89
68.124001 30.775999 -230.39
66.566002 34.469002 -256.12
66.566002 34.667999 -256.12
66.603996 34.783001 -255.5
66.987 -16.461 -252.46001
66.950996 -16.299999 -253.06
67.022003 -15.283 -251.85001
67.023003 -14.826 -251.86
67.023003 -13.683 -251.85001
66.838997 15.142 -254.88
66.803001 15.612 -255.5
66.803001 15.811 -255.5
66.803001 16.009001 -255.5
68.452003 17.572001 -227.89999
66.875999 22.618999 -254.27
66.875999 22.784 -254.25999
66.838997 30.502001 -254.87
66.802002 30.775 -255.49001
66.838997 33.078999 -254.88
66.838997 33.277 -254.88
68.274002 30.332001 -230.89999
68.304001 30.445 -230.39
68.274002 30.691 -230.89999
68.273003 30.843 -230.89
66.727997 34.551998 -256.73999
66.727997 34.751999 -256.73999
66.764999 34.867001 -256.12
66.963997 16.811001 -256.12
68.600998 17.610001 -228.39
67.038002 22.674 -254.88
67.037003 22.839001 -254.88
67 30.576 -255.49001
66.963997 30.85 -256.10999
68.422997 30.398001 -231.39999
68.453003 30.511 -230.89999
68.422997 30.757999 -231.39999
68.422997 30.910999 -231.39999
66.889999 35.803001 -257.35999
66.889999 36.002998 -257.35999
66.889999 36.202999 -257.37
68.363998 32.889999 -232.42
68.363998 33.070999 -232.42
67.345001 -20.212999 -253.07001
67.345001 -20.016001 -253.07001
67.345001 -19.82 -253.07001
67.344002 -19.653999 -253.06
67.344002 -19.458 -253.06
67.344002 -18.506001 -253.06
67.344002 -18.309 -253.06
67.378998 -18.073 -252.45
67.378998 -17.058001 -252.46001
67.378998 -16.862 -252.46001
67.126999 16.851999 -256.73999
67.126999 17.052 -256.73999
67.126999 17.250999 -256.73999
67.126999 17.451 -256.73999
68.749001 17.648001 -228.89
67.199997 22.729 -255.5
67.198997 22.893999 -255.5
67.163002 30.65 -256.10999
67.126999 30.924999 -256.73001
68.573997 30.465 -231.91
68.602997 30.577999 -231.39999
68.573997 30.825001 -231.91
68.572998 30.979 -231.91
68.514 32.963001 -232.94
68.514 33.144001 -232.94
67.089996 36.803001 -257.37
67.507004 -22.433001 -253.67999
67.505997 -22.267 -253.67
68.899002 17.687 -229.39
67.362999 22.784 -256.12
67.362 22.950001 -256.12
67.325996 30.725 -256.73001
67.290001 31 -257.35999
68.724998 30.532 -232.42
68.753998 30.645 -231.91
68.724998 30.893 -232.42
68.754997 31.044001 -231.92
68.666 33.035999 -233.45
68.666 33.216999 -233.45
67.253998 37.060001 -257.98999
67.253998 37.261002 -257.98999
67.253998 37.460999 -257.98999
67.219002 38.223999 -258.63
67.218002 38.391998 -258.63
67.668999 -23.08 -254.28999
67.668999 -22.684999 -254.28999
67.668999 -22.518 -254.28
67.737 -20.877001 -253.06
67.489998 18.459 -257.35999
67.490997 19.127001 -257.37
67.490997 19.294001 -257.37
67.490997 19.493999 -257.37
69.049004 17.725 -229.89
67.527 22.839001 -256.73999
67.526001 23.006001 -256.73999
67.489998 30.799999 -257.35999
67.455002 31.076 -257.98999
67.384003 31.499001 -259.26999
68.875999 30.599001 -232.92999
68.904999 30.712999 -232.42
68.875999 30.961 -232.92999
68.905998 31.112 -232.42999
68.818001 33.109001 -233.97
68.818001 33.291 -233.97
67.383003 38.486 -259.26001
67.418999 38.592999 -258.63
67.833 -23.135 -254.89999
67.866997 -22.886999 -254.28999
69.198997 17.764 -230.39
67.691002 20.093 -257.37
67.691002 20.459999 -257.35999
67.691002 20.66 -257.35999
67.691002 20.860001 -257.35999
67.691002 22.895 -257.37
67.691002 23.062 -257.35999
67.654999 30.875 -257.98999
67.620003 31.152 -258.62
67.550003 31.577 -259.89999
69.028 30.667 -233.45
69.056999 30.780001 -232.92999
69.028999 31.030001 -233.45
69.057999 31.181 -232.94
68.971001 33.182999 -234.49001
68.971001 33.365002 -234.49001
67.584999 38.688 -259.26001
67.513 39.688 -260.54001
67.476997 39.953999 -261.17999
68.098 -25.999001 -253.67
68.064003 -24.507 -254.28
68.064003 -24.112 -254.28
68.064003 -23.747999 -254.28
68.030998 -22.941999 -254.89999
67.890999 19.691999 -257.37
69.350998 17.802999 -230.89
67.857002 20.142 -258
67.890999 20.292 -257.37
67.856003 20.51 -257.98999
67.856003 20.709999 -257.98999
67.856003 20.910999 -257.98999
67.890999 21.059 -257.35999
67.857002 22.951 -258
67.856003 23.118 -257.98999
67.820999 30.951 -258.62
67.786003 31.228001 -259.26001
69.181 30.735001 -233.97
69.209999 30.848 -233.45
69.181 31.099001 -233.97
69.210999 31.25 -233.45
69.124001 33.257 -235.00999
69.124001 33.438999 -235.00999
67.644997 40.087002 -261.84
68.294998 -26.827 -253.67
68.261002 -26.521999 -254.28
68.262001 -26.061001 -254.28
68.056999 21.110001 -257.98999
68.023003 23.007 -258.63
68.022003 23.174999 -258.62
67.987 31.027 -259.26001
67.953003 31.305 -259.89001
69.334999 30.802999 -234.49001
69.362999 30.917 -233.97
69.335999 31.233999 -234.49001
69.363998 31.319 -233.97
69.278999 33.331001 -235.53
69.278999 33.514 -235.53999
67.811996 40.560001 -262.48001
67.883003 40.563999 -261.17999
68.459 -26.891001 -254.28
68.190002 23.063999 -259.26001
68.189003 23.232 -259.26001
68.154999 31.103001 -259.89001
68.121002 31.452 -260.54001
69.488998 30.872 -235.00999
69.516998 30.986 -234.48
69.490997 31.302999 -235.02
69.517998 31.389 -234.49001
69.432999 33.404999 -236.06
69.432999 33.589001 -236.06
68.051003 40.665001 -261.82999
69.432999 36.874001 -236.06
68.357002 23.289 -259.89999
68.322998 31.18 -260.54001
68.290001 31.530001 -261.19
69.643997 30.941 -235.53
69.671997 31.054001 -235.00999
69.646004 31.372999 -235.53999
69.672997 31.458 -235.00999
69.588997 33.48 -236.59
69.588997 33.664001 -236.59
69.588997 36.957001 -236.59
68.152 41.449001 -263.79999
68.152 41.653999 -263.79999
68.152 41.824001 -263.79999
68.152 42.028999 -263.79999
68.948997 -29.475 -252.45
68.491997 31.257 -261.17999
68.459 31.608 -261.84
69.800003 31.01 -236.06
69.801003 31.26 -236.07001
69.801003 31.443001 -236.07001
69.829002 31.556 -235.53999
69.745003 33.555 -237.12
69.745003 33.740002 -237.12
69.774002 37.023998 -236.60001
68.321999 42.133999 -264.45999
68.321999 42.34 -264.45999
69.208 -30.882 -251.25
68.662003 31.165001 -261.82999
68.662003 31.334999 -261.82999
68.628998 31.687 -262.48999
69.957001 31.079 -236.59
69.958 31.33 -236.60001
69.958 31.513 -236.60001
69.985001 31.627001 -236.07001
69.902 33.631001 -237.66
69.902 33.816002 -237.66
69.931 37.106998 -237.13
68.528 42.546001 -264.45999
68.528 42.750999 -264.45999
68.528 42.957001 -264.45999
69.522003 -33.330002 -248.88
69.373001 -30.955 -251.85001
70.167999 22.997 -236.06
68.833 31.242001 -262.48001
68.832001 31.412001 -262.48001
68.800003 31.766001 -263.14001
70.114998 31.584 -237.13
70.141998 31.697001 -236.60001
70.059998 33.707001 -238.19
70.059998 33.891998 -238.19
70.087997 37.189999 -237.66
68.699997 43.271 -265.13
69.686996 -33.409 -249.47
69.004997 31.32 -263.14001
68.972 31.639999 -263.79999
70.299004 31.768999 -237.13
70.218002 33.783001 -238.73
70.218002 33.967999 -238.73
70.220001 37.172001 -238.74001
70.246002 37.273998 -238.2
68.905998 43.855 -265.12
68.905998 44.061001 -265.12
68.839996 49.667999 -266.45999
68.873001 49.750999 -265.79001
68.873001 49.957001 -265.79001
68.873001 50.129002 -265.79001
68.873001 50.334999 -265.79001
68.806 50.794998 -267.14001
68.839996 50.875 -266.45999
68.906998 50.900002 -265.13
68.841003 51.361 -266.47
68.906998 51.277 -265.13
69.938004 -42.202 -248.28999
69.851997 -33.487999 -250.06
69.177002 31.399 -263.79001
69.144997 31.719 -264.45999
70.457001 31.285999 -237.66
70.457001 31.84 -237.66
70.376999 33.859001 -239.27
70.377998 34.044998 -239.27
70.378998 37.257 -239.28
70.404999 37.359001 -238.74001
69.014 49.792999 -267.14001
69.046997 49.875999 -266.45999
69.046997 50.083 -266.45999
69.046997 50.255001 -266.45999
69.046997 50.462002 -266.45999
69.081001 51.028 -265.79999
69.014999 51.491001 -267.14001
69.080002 51.405998 -265.79999
70.102997 -42.301998 -248.87
70.129997 -34.273998 -248.28
69.349998 31.476999 -264.45999
69.319 31.799 -265.12
70.615997 31.357 -238.2
70.615997 31.912001 -238.2
70.537003 33.936001 -239.81
70.537003 34.123001 -239.81
70.539001 37.341 -239.82001
70.565002 37.443001 -239.28
69.222 49.379002 -267.14001
69.254997 51.157001 -266.47
69.254997 51.570999 -266.47
69.287003 51.613998 -265.79999
69.124001 52.473 -269.17999
69.124001 52.681999 -269.17999
69.222 52.494999 -267.14001
70.267998 -42.402 -249.46001
70.295998 -34.355 -248.87
70.801003 26.15 -238.19
69.524002 31.556 -265.12
69.492996 31.879 -265.79001
69.492996 32.084999 -265.79001
69.43 32.455002 -267.14001
70.776001 31.427999 -238.73
70.776001 31.983999 -238.74001
70.697998 34.014 -240.36
70.697998 34.200001 -240.36
70.698997 37.425999 -240.37
70.724998 37.528 -239.82001
69.429001 47.303001 -267.14001
69.398003 52.627998 -267.82001
69.333 53.102001 -269.17999
69.364998 53.351002 -268.5
70.434998 -42.501999 -250.05
70.960999 26.952 -238.73
70.934998 27.915001 -239.27
70.959999 28.037001 -238.73
69.698997 31.636 -265.79001
69.668999 31.959 -266.45999
69.668999 32.166 -266.45999
69.606003 32.537998 -267.82001
69.605003 34.375999 -267.81
70.935997 31.499001 -239.28
70.935997 32.056999 -239.28
70.859001 34.091 -240.91
70.859001 34.278 -240.91
70.860001 37.512001 -240.92
70.886002 37.613998 -240.37
69.542 53.313 -269.17999
69.542 53.487 -269.17999
69.510002 53.831001 -269.87
69.510002 54.041 -269.87
70.601997 -42.603001 -250.64999
70.709 -36.257 -248.28
71.146004 27.48 -238.73
71.121002 27.729 -239.27
71.096001 27.978001 -239.81
71.121002 28.101 -239.27
71.146004 28.222 -238.73
69.875999 31.787001 -266.47
69.845001 32.040001 -267.14001
69.845001 32.248001 -267.14001
69.782997 32.620998 -268.5
69.781998 34.255001 -268.48999
69.781998 34.463001 -268.48999
71.071999 31.455 -240.37
71.097 31.57 -239.82001
71.098 32.129002 -239.82001
71.021004 34.168999 -241.46001
71.021004 34.356998 -241.46001
71.022003 37.598 -241.47
71.047997 37.700001 -240.92
69.720001 54.252998 -269.87
69.721001 54.535 -269.88
70.769997 -42.703999 -251.24001
70.875999 -36.701 -248.87
70.875 -36.535999 -248.86
71.282997 27.792 -239.81
70.053001 31.867001 -267.14001
70.022003 32.120998 -267.81
70.022003 32.330002 -267.81
69.960999 32.703999 -269.17999
70.022003 32.745998 -267.81
69.959999 34.341999 -269.17999
69.959999 34.550999 -269.17999
71.235001 31.527 -240.91
71.259003 31.642 -240.37
71.259003 32.202999 -240.37
71.183998 34.247002 -242.00999
71.184998 34.504002 -242.02
71.184998 37.683998 -242.02
71.209999 37.785999 -241.47
69.93 55.130001 -269.87
70.964996 -45.256001 -251.24001
70.939003 -42.806 -251.84
71.069 -37.285999 -248.87
71.069 -37.092999 -248.87
71.069 -36.900002 -248.87
71.042999 -36.622002 -249.45
70.199997 32.202999 -268.5
70.199997 32.411999 -268.5
70.139 32.786999 -269.87
70.199997 32.828999 -268.5
70.199997 33.037998 -268.5
70.199997 33.245998 -268.5
70.139 34.43 -269.87
70.139 34.639999 -269.87
71.398003 31.599001 -241.46001
71.421997 31.714001 -240.91
71.398003 31.974001 -241.47
71.398003 32.161999 -241.47
71.421997 32.276001 -240.91
70.139 36.319 -269.87
71.348 34.326 -242.57001
71.348999 34.583 -242.58
71.348999 37.77 -242.58
71.373001 37.872002 -242.02
70.109001 55.271999 -270.57001
71.211998 -45.838001 -250.05
71.134003 -45.363998 -251.84
71.237999 -44.766998 -249.46001
71.108002 -42.909 -252.44
71.237999 -38.120998 -249.46001
70.378998 32.493999 -269.17999
70.408997 33.455002 -268.5
70.407997 33.629002 -268.48999
70.407997 34.046001 -268.48999
70.319 34.518002 -270.56
70.319 34.728001 -270.56
70.408997 34.672001 -268.48999
70.407997 34.846001 -268.48999
71.560997 31.672001 -242.02
71.584999 31.787001 -241.46001
71.560997 32.048 -242.02
71.560997 32.236 -242.02
71.584999 32.349998 -241.47
70.319 36.446999 -270.56
71.512001 34.404999 -243.13
71.513 34.661999 -243.14
71.513 37.856998 -243.14
71.537003 37.959 -242.58
70.289001 56.257 -271.26001
71.380997 -45.946999 -250.64
71.305 -45.473 -252.44
71.405998 -44.873001 -250.05
71.278999 -43.011002 -253.05
71.405998 -40.192001 -250.05
71.431 -38.773998 -249.45
71.405998 -38.240002 -250.05
70.587997 33.540001 -269.17999
70.587997 33.715 -269.17999
70.587997 33.924 -269.17999
70.587997 34.132999 -269.17999
70.499001 34.606998 -271.25
70.499001 34.817001 -271.25
70.587997 34.759998 -269.17999
70.588997 35.007 -269.17999
71.725998 31.743999 -242.57001
71.749001 31.860001 -242.02
71.725998 32.120998 -242.57001
71.725998 32.310001 -242.57001
71.749001 32.424 -242.02
70.5 36.541 -271.26001
70.499001 36.716 -271.25
71.678001 34.553001 -243.7
71.678001 34.742001 -243.7
71.678001 37.945 -243.7
71.702003 38.047001 -243.14
71.552002 -46.223 -251.24001
71.551003 -46.056 -251.24001
71.474998 -45.582001 -253.05
71.575996 -44.979 -250.64
71.449997 -43.115002 -253.66
71.575996 -40.872002 -250.64
71.575996 -40.481998 -250.64
71.575996 -40.287998 -250.64
71.599998 -40.004002 -250.03999
71.625 -39.167999 -249.45
71.624001 -38.973999 -249.45
70.768997 35.096001 -269.87
71.890999 31.816999 -243.13
71.914001 31.933001 -242.57001
71.890999 32.195 -243.13
71.890999 32.383999 -243.13
71.914001 32.499001 -242.57001
70.681999 36.634998 -271.95999
70.681 36.811001 -271.95001
70.681 37.233002 -271.95001
71.844002 34.632999 -244.25999
71.844002 34.823002 -244.25999
71.844002 38.032001 -244.25999
71.867996 38.134998 -243.7
70.563004 57.41 -274.79001
70.593002 57.439999 -274.07001
71.722 -46.362 -251.84
71.722 -46.166 -251.84
71.647003 -45.691002 -253.66
71.746002 -45.085999 -251.24001
71.622002 -43.219002 -254.27
71.746002 -40.578999 -251.24001
71.746002 -40.382999 -251.24001
71.769997 -40.098999 -250.64
71.769997 -39.737999 -250.63
71.793999 -39.066002 -250.03999
72.056999 31.891001 -243.69
72.080002 32.007 -243.13
72.056999 32.27 -243.69
72.056999 32.459 -243.69
72.080002 32.573002 -243.13
70.863998 36.729 -272.66
70.863998 36.905998 -272.64999
70.892998 37.021999 -271.95001
70.863998 37.328999 -272.64999
70.863998 37.541 -272.64999
70.863998 37.752998 -272.66
72.011002 34.713001 -244.83
72.011002 34.903999 -244.83
72.011002 38.120998 -244.83
72.033997 38.223 -244.25999
70.776001 57.589001 -274.79001
70.747002 57.952 -275.51001
71.892998 -46.277 -252.44
71.82 -45.800999 -254.27
71.917 -45.194 -251.84
71.794998 -43.323002 -254.88
71.916 -40.937 -251.83
71.917 -40.674999 -251.83
71.917 -40.48 -251.83
71.075996 37.118 -272.64999
71.046997 37.425999 -273.35999
71.046997 37.639 -273.35999
71.046997 37.851002 -273.35999
71.046997 38.063 -273.35999
71.046997 38.240002 -273.35999
71.046997 38.452 -273.35999
72.178001 34.793999 -245.39999
72.178001 34.985001 -245.39999
72.178001 38.209 -245.39999
72.200996 38.312 -244.83
70.961998 58.242001 -275.51999
70.932999 58.606998 -276.23999
70.932999 58.820999 -276.23999
70.932999 59.035999 -276.23999
72.065002 -46.388 -253.05
71.992996 -45.911999 -254.88
72.088997 -45.331001 -252.42999
71.969002 -43.428001 -255.5
72.087997 -41.035 -252.42999
72.088997 -40.772999 -252.44
72.088997 -40.576 -252.44
71.232002 37.522999 -274.07001
71.232002 37.736 -274.07001
71.232002 37.949001 -274.07001
71.232002 38.161999 -274.07001
71.231003 38.339001 -274.07001
71.232002 38.625999 -274.07999
72.346001 34.875 -245.97
72.346001 35.066002 -245.97
71.175003 40.289001 -275.5
71.175003 40.502998 -275.5
72.346001 38.298 -245.97
72.369003 38.401001 -245.39999
71.119003 58.976002 -276.95999
71.119003 59.191002 -276.95999
71.119003 59.405998 -276.95999
72.237 -46.564999 -253.64
72.167 -46.022999 -255.5
72.261002 -45.439999 -253.03999
72.142998 -43.533001 -256.12
72.307999 -41.702999 -251.83
71.417999 38.726002 -274.79001
72.514999 34.956001 -246.53999
72.514999 35.147999 -246.53999
71.445 39.264999 -274.07999
71.361 40.394001 -276.22
71.361 40.609001 -276.22
71.361 41.860001 -276.22
72.514999 38.388 -246.53999
72.537003 38.490002 -245.97
71.334 59.587002 -276.95999
71.306 60.173 -277.69
71.306 60.389 -277.69
71.306 60.605 -277.69
72.411003 -46.678001 -254.25
72.342003 -46.134998 -256.12
72.434998 -45.549 -253.64999
72.319 -43.639 -256.73999
72.503998 -42.101002 -251.83
72.503998 -41.904999 -251.83
72.481003 -41.803001 -252.42999
72.684998 35.037998 -247.12
72.684998 35.23 -247.12
71.630997 39.367001 -274.79001
71.630997 39.581001 -274.79001
71.630997 39.793999 -274.79001
71.630997 39.972 -274.79001
71.547997 40.5 -276.95001
71.547997 40.715 -276.95001
71.603996 40.717999 -275.5
71.575996 41.252998 -276.22
71.575996 41.467999 -276.22
71.575996 41.646 -276.22
71.577003 41.935001 -276.23001
71.549004 42.258999 -276.95001
71.549004 42.474998 -276.95001
71.549004 42.689999 -276.95999
72.684998 38.477001 -247.12
72.707001 38.580002 -246.53999
71.494003 60.764 -278.42001
71.494003 60.980999 -278.42001
72.446999 -50.259998 -258.62
72.585999 -49.374001 -254.87
72.585999 -46.790001 -254.87
72.609001 -45.658001 -254.25999
72.495003 -43.744999 -257.37
72.677002 -42.202 -252.42999
71.764 41.577 -276.95001
71.737 42.801998 -277.67999
72.855003 38.568001 -247.7
72.876999 38.669998 -247.12
71.737 43.629002 -277.67999
71.737 43.844002 -277.67999
71.710999 61.453999 -278.42001
71.710999 61.669998 -278.42001
72.625 -50.382999 -259.26001
72.762001 -49.493 -255.49001
72.762001 -46.903 -255.49001
72.785004 -45.769001 -254.87
71.980003 42.905998 -276.95001
73.026001 38.658001 -248.28
73.047997 38.761002 -247.7
71.926003 43.743999 -278.41
71.926003 43.959999 -278.41
71.926003 44.175999 -278.41
71.926003 44.393002 -278.41
71.901001 61.616001 -279.16
71.901001 61.833 -279.16
71.901001 62.049999 -279.16
72.805 -51.285 -259.89999
72.804001 -50.709 -259.89999
72.804001 -50.507 -259.89999
72.938004 -49.612999 -256.10999
72.938004 -47.016998 -256.10999
72.960999 -45.879002 -255.49001
72.115997 44.509998 -279.14999
72.142998 44.610001 -278.41
72.141998 44.790001 -278.41
72.116997 45.632999 -279.14999
72.116997 45.849998 -279.14999
72.065002 62.813999 -280.64999
72.065002 63.032001 -280.64999
72.091003 63.483002 -279.89999
72.984001 -51.410999 -260.54001
72.984001 -50.834 -260.54001
72.984001 -50.632 -260.54001
73.115997 -49.734001 -256.73001
73.115997 -47.132 -256.73001
73.138 -45.991001 -256.10999
73.244003 -44.123001 -253.03
72.434998 34.811001 -276.22
72.333 44.728001 -279.14999
72.333 44.908001 -279.14001
72.333 45.125 -279.14001
72.334 45.417 -279.14999
72.307999 45.754002 -279.89001
72.307999 45.971001 -279.89001
72.308998 63.087002 -279.89999
72.281998 63.651001 -280.64001
72.255997 64.037003 -281.39001
73.165001 -51.742001 -261.19
73.165001 -51.539001 -261.19
73.164001 -50.959999 -261.17999
73.164001 -50.757 -261.17999
73.293999 -49.855 -257.35001
73.293999 -47.245998 -257.35001
73.228996 -46.597 -259.25
72.525002 46.588001 -279.89001
72.525002 46.805 -279.89001
72.448997 64.208 -282.14001
72.448997 64.428001 -282.14001
72.474998 64.476997 -281.39001
73.346001 -51.869999 -261.84
73.346001 -51.666 -261.84
73.346001 -51.085999 -261.82999
73.346001 -50.882999 -261.82999
73.473 -49.977001 -257.98001
73.473 -47.362 -257.98001
73.408997 -46.712002 -259.89001
73.492996 -46.082001 -257.35001
73.575996 -45.029999 -254.86
72.718002 46.712002 -280.63
72.718002 46.93 -280.63
72.718002 47.147999 -280.63
72.642998 64.599998 -282.89999
72.668999 64.649002 -282.14001
73.528999 -51.999001 -262.48999
73.528 -51.825001 -262.48001
73.528 -51.213001 -262.48001
73.528 -51.008999 -262.48001
73.653 -50.098999 -258.62
73.653 -47.478001 -258.60999
72.862999 48.882 -282.89999
72.888 49.191002 -282.14001
72.815002 65.242996 -284.42999
72.790001 65.639 -285.20001
72.790001 65.860001 -285.20001
72.789001 66.042999 -285.20001
72.863998 65.960999 -282.89999
72.838997 66.356003 -283.66
72.814003 66.973999 -284.42999
73.710999 -53.598 -263.14001
73.711998 -52.129002 -263.14001
73.710999 -51.953999 -263.14001
73.710999 -51.341 -263.14001
73.710999 -51.136002 -263.14001
73.834 -50.222 -259.25
73.834 -47.594002 -259.25
73.058998 49.013 -283.66
73.107002 48.973 -282.14001
73.083 49.323002 -282.89999
73.083 49.542999 -282.89999
73.059998 65.917 -283.66
73.059998 66.138 -283.66
73.036003 66.533997 -284.42999
73.894997 -53.937 -263.79001
73.894997 -53.731998 -263.79001
73.894997 -52.327 -263.79001
73.894997 -52.084 -263.79001
73.894997 -51.469002 -263.79001
73.894997 -51.264 -263.79001
74.015999 -50.346001 -259.89001
74.014999 -47.712002 -259.89001
73.279999 49.455002 -283.66
73.279999 49.675999 -283.66
73.257004 66.316002 -284.42999
73.233002 66.713997 -285.20001
73.233002 66.935997 -285.20001
73.209 67.335999 -285.97
74.081001 -54.071999 -264.45999
74.081001 -53.866001 -264.45001
74.079002 -52.283001 -264.44
74.080002 -51.598 -264.45001
74.080002 -51.393002 -264.45001
74.197998 -50.470001 -260.53
74.197998 -47.828999 -260.53
74.196999 -47.657001 -260.51999
74.331001 -46.693001 -256.09
74.348999 -46.388 -255.47
73.476997 49.810001 -284.42001
73.5 49.897999 -283.66
73.407997 67.518997 -286.75
73.407997 67.741997 -286.75
73.407997 68.671997 -286.75
74.186996 -55.422001 -267.81
74.266998 -54.208 -265.12
74.265999 -54.032001 -265.10999
74.264999 -52.415001 -265.10999
74.264999 -52.209 -265.10999
74.265999 -51.728001 -265.12
74.265999 -51.521999 -265.12
74.382004 -50.595001 -261.17001
74.456001 -48.778 -258.60001
73.697998 50.032001 -284.42001
73.697998 50.437 -284.42001
73.675003 51.458 -285.19
73.675003 51.68 -285.19
73.675003 51.863998 -285.17999
73.653999 67.787003 -285.97
73.653 67.970001 -285.97
73.630997 68.453003 -286.75
73.608002 68.860001 -287.53
73.608002 69.083 -287.53
73.608002 69.306999 -287.53
73.608002 69.529999 -287.53
74.375 -55.563 -268.48999
74.454002 -54.344002 -265.79001
74.453003 -54.167999 -265.78
74.452003 -52.546001 -265.78
74.452003 -52.34 -265.78
74.453003 -51.858002 -265.79001
74.453003 -51.651001 -265.78
74.638 -48.897999 -259.23999
73.897003 50.167 -285.19
73.918999 50.254002 -284.42001
73.897003 50.573002 -285.17999
73.918999 50.659 -284.42001
73.897003 51.015999 -285.17999
73.897003 51.237999 -285.17999
73.875 51.597 -285.95999
73.875 51.82 -285.95999
73.874001 52.004002 -285.95001
73.875 52.970001 -285.95999
73.832001 68.639 -287.53
73.808998 69.047997 -288.32001
73.808998 69.272003 -288.32001
73.808998 69.496002 -288.32001
73.808998 69.720001 -288.32001
74.565002 -55.705002 -269.17001
74.640999 -54.480999 -266.45999
74.640999 -54.305 -266.45001
74.639999 -52.679001 -266.45001
74.639999 -52.472 -266.45001
74.640999 -51.782001 -266.45999
74.839996 -49.882 -259.23999
74.875999 -48.849998 -257.97
74.075996 53.113998 -286.73999
74.075996 53.335999 -286.73999
74.054001 54.558998 -287.51999
74.031998 56.09 -288.31
74.011002 69.685997 -289.10999
74.011002 69.911003 -289.10999
74.011002 70.135002 -289.10999
74.011002 70.320999 -289.10001
74.032997 70.356003 -288.31
74.390999 68.533997 -275.51999
74.810997 -55.860001 -267.79999
74.754997 -55.847 -269.85999
74.847 -54.764999 -266.45001
74.830002 -54.650002 -267.13
74.830002 -54.442001 -267.13
74.829002 -52.812 -267.12
74.829002 -52.605 -267.12
74.972 -51.209999 -261.81
75.007004 -50.527 -260.51999
75.025002 -50.005001 -259.88
74.299004 52.668999 -286.73999
74.278 53.257999 -287.51999
74.278 53.481998 -287.51999
74.299004 53.561001 -286.73999
74.297997 53.745998 -286.73999
74.297997 53.969002 -286.73999
74.255997 54.708 -288.29999
74.277 54.784 -287.51999
74.235001 56.243 -289.10001
74.235001 56.467999 -289.10001
74.214996 70.102997 -289.89999
74.214996 70.328003 -289.89999
74.213997 70.514 -289.89999
74.236 70.549004 -289.10001
75.000999 -56.001999 -268.48001
74.946999 -55.990002 -270.54999
75.037003 -54.903 -267.12
75.018997 -54.580002 -267.79999
75.018997 -52.945999 -267.79999
75.018997 -52.737999 -267.79999
75.157997 -51.337002 -262.45999
75.017998 -52.145 -267.79001
75.017998 -51.937 -267.79001
75.209999 -50.129002 -260.51999
74.500999 54.116001 -287.51999
74.500999 54.339001 -287.51999
74.459 54.858002 -289.09
74.480003 54.933998 -288.29999
74.480003 55.382 -288.29999
74.439003 56.397999 -289.89001
74.439003 56.623001 -289.89001
74.418999 70.295998 -290.70001
74.418999 70.522003 -290.70001
74.417999 70.708 -290.70001
74.440002 70.742996 -289.89999
74.763 71.271004 -277.70001
74.763 71.487 -277.70001
75.192001 -56.145 -269.17001
75.139 -56.133999 -271.25
75.226997 -55.042 -267.79999
75.209 -54.789001 -268.48001
75.209 -53.081001 -268.48001
75.209 -52.872002 -268.48001
75.346001 -51.465 -263.10999
75.209 -52.277 -268.47
75.209 -52.069 -268.47
74.704002 54.487 -288.29999
74.664001 55.008999 -289.89001
74.683998 55.084 -289.09
74.684998 55.611 -289.10001
74.643997 56.553001 -290.69
74.643997 56.778999 -290.69
74.664001 57.076 -289.89001
74.624001 70.489998 -291.5
74.624001 70.716003 -291.5
74.624001 70.903999 -291.5
74.644997 70.936996 -290.70001
75.279999 -59.076 -274.06
75.025002 -60.972 -284.42001
75.384003 -56.289001 -269.85999
75.333 -56.278999 -271.94
75.417999 -55.213001 -268.47
75.401001 -54.928001 -269.16
75.401001 -54.719002 -269.16
75.401001 -53.216 -269.16
75.401001 -53.007 -269.16
75.533997 -51.592999 -263.76999
74.889 55.236 -289.89001
74.889999 55.764 -289.89999
74.849998 56.709 -291.48999
74.849998 56.936001 -291.48999
74.870003 57.233002 -290.69
74.870003 57.872002 -290.69
74.831001 70.684998 -292.31
74.831001 70.912003 -292.31
74.850998 70.945999 -291.5
74.850998 71.133003 -291.5
75.140999 72.962997 -279.92001
75.140999 73.181 -279.92001
75.122002 73.589996 -280.66
75.578003 -56.432999 -270.54999
75.658997 -55.548 -267.12
75.528 -56.424 -272.64999
75.610001 -55.354 -269.16
75.593002 -55.069 -269.85001
75.593002 -54.859001 -269.85001
75.594002 -53.352001 -269.85001
75.594002 -53.143002 -269.85001
75.722 -51.752998 -264.42999
75.134003 55.800999 -289.10001
75.056999 56.866001 -292.29999
75.056999 57.092999 -292.29999
75.114998 56.854 -289.89001
75.077003 57.390999 -291.48999
75.096001 57.460999 -290.69
75.096001 57.647999 -290.69
75.075996 58.032001 -291.48999
75.075996 58.257999 -291.48999
75.057999 59.178001 -292.31
75.056999 59.366001 -292.29999
75.018997 63.347 -293.92999
75.039001 70.653 -293.12
75.039001 70.880997 -293.12
75.039001 71.109001 -293.12
75.057999 71.141998 -292.31
75.057999 71.330002 -292.31
75.606003 -60.195999 -278.41
75.431999 -61.301998 -285.95999
75.772003 -56.577999 -271.23999
75.850998 -55.688999 -267.79001
75.723 -56.57 -273.35001
75.803001 -55.495998 -269.85001
75.787003 -55.209999 -270.54001
75.787003 -55 -270.54001
75.788002 -53.488998 -270.54001
75.788002 -53.278999 -270.54001
75.341003 55.953999 -289.89001
75.303001 57.618999 -291.48999
75.303001 57.806999 -291.48999
75.283997 58.192001 -292.29999
75.283997 58.418999 -292.29999
75.265999 59.341999 -293.12
75.265999 59.530998 -293.10999
75.227997 63.523998 -294.75
75.227997 68.066002 -294.75
75.248001 70.849998 -293.94
75.248001 71.078003 -293.94
75.248001 71.306999 -293.94
75.266998 71.339996 -293.12
75.265999 71.528 -293.12
75.541 74.410004 -281.41
75.806 -60.355 -279.14001
75.871002 -59.539001 -276.20999
75.637001 -61.469002 -286.73999
75.967003 -56.723999 -271.94
76.043999 -55.830002 -268.48001
75.919998 -56.716999 -274.06
75.997002 -55.638 -270.54001
75.982002 -55.352001 -271.23001
75.982002 -55.140999 -271.23001
76.073997 -53.478001 -267.10999
75.982002 -53.625999 -271.23999
75.982002 -53.416 -271.23999
75.566002 56.181999 -289.89001
75.512001 57.778999 -292.29999
75.511002 57.966999 -292.29999
75.492996 58.354 -293.10999
75.492996 58.582001 -293.10999
75.511002 58.648998 -292.29999
75.513 58.953999 -292.31
75.475998 59.507 -293.92999
75.475998 59.736 -293.92999
75.439003 63.702 -295.57999
75.439003 68.257004 -295.57999
75.458 71.047997 -294.76001
75.458 71.277 -294.76001
75.458 71.505997 -294.76001
75.475998 71.538002 -293.94
75.475998 71.726997 -293.92999
76.100998 -60.902 -275.48999
75.942001 -62.229 -282.89001
76.007004 -60.514999 -279.88
76.07 -59.695999 -276.94
75.843002 -61.636002 -287.51999
76.163002 -56.869999 -272.64001
76.237999 -55.973 -269.16
76.116997 -56.863998 -274.78
76.266998 -55.317001 -267.79001
76.193001 -55.780998 -271.23001
76.177002 -55.493999 -271.92999
76.177002 -55.283001 -271.92999
76.266998 -54.069 -267.79001
76.265999 -53.890999 -267.78
76.266998 -53.612999 -267.79001
75.721001 58.811001 -293.10999
75.722 59.118 -293.12
75.686996 59.673 -294.76001
75.686996 59.902 -294.76001
75.685997 61.426998 -294.75
75.650002 63.881001 -296.41
75.650002 68.218002 -296.41
75.650002 68.448997 -296.41
75.668999 71.247002 -295.57999
75.668999 71.475998 -295.57999
75.668999 71.706001 -295.57999
75.686996 71.737999 -294.76001
75.685997 71.928001 -294.75
75.961998 75.269997 -282.16
76.146004 -62.402 -283.64999
76.209 -60.675999 -280.63
76.269997 -59.853001 -277.67001
76.050003 -61.804001 -288.29999
76.360001 -57.016998 -273.35001
76.432999 -56.116001 -269.85001
76.316002 -57.013 -275.48999
76.460999 -55.458 -268.47
76.389 -55.924 -271.92999
76.374001 -55.638 -272.64001
76.374001 -55.425999 -272.63
76.459999 -54.028 -268.45999
76.459999 -53.819 -268.45999
75.931999 58.974998 -293.92001
75.932999 59.283001 -293.92999
75.899002 59.84 -295.57999
75.899002 60.07 -295.57999
75.932999 60.386002 -293.92999
75.898003 61.639 -295.57999
75.898003 62.058998 -295.57001
75.862999 64.060997 -297.23999
75.862999 68.410004 -297.23999
75.862999 68.640999 -297.23999
75.880997 71.216003 -296.41
75.880997 71.446999 -296.41
75.880997 71.677002 -296.41
75.880997 71.906998 -296.41
75.899002 71.939003 -295.57999
75.880997 72.367996 -296.41
76.412003 -60.837002 -281.37
76.471001 -60.009998 -278.39999
76.258003 -61.973 -289.09
76.557999 -57.165001 -274.06
76.628998 -56.258999 -270.54001
76.514999 -57.194 -276.20999
76.655998 -55.599998 -269.14999
76.585999 -56.069 -272.63
76.682999 -54.916 -267.78
76.571999 -55.782001 -273.34
76.571999 -55.569 -273.34
76.695999 -53.984001 -267.10001
76.161003 60.159 -293.92999
76.144997 60.554001 -294.75
76.144997 60.783001 -294.75
76.111 61.812 -296.41
76.126999 61.831001 -295.57001
76.111 62.233002 -296.39999
76.112 62.772999 -296.41
76.078003 64.240997 -298.07999
76.078003 68.602997 -298.07999
76.078003 68.834999 -298.07999
76.095001 71.417 -297.25
76.095001 71.648003 -297.25
76.095001 71.878998 -297.25
76.095001 72.110001 -297.25
76.112 72.140999 -296.41
76.615997 -61.887001 -282.12
76.615997 -61 -282.13
76.674004 -60.168999 -279.14001
76.755997 -57.384998 -274.76001
76.824997 -56.403999 -271.23001
76.716003 -57.344002 -276.92999
76.850998 -55.742001 -269.84
76.783997 -56.214001 -273.34
76.877998 -55.055 -268.45999
76.771004 -55.925999 -274.04999
76.771004 -55.713001 -274.04999
76.358002 60.723999 -295.57999
76.358002 60.953999 -295.57999
76.374001 61.014999 -294.75
76.374001 61.243999 -294.75
76.324997 61.986 -297.23999
76.341003 62.005001 -296.39999
76.324997 62.408001 -297.23999
76.342003 62.544998 -296.41
76.325996 62.950001 -297.25
76.325996 63.181 -297.25
76.292999 64.422997 -298.92999
76.292999 68.797997 -298.92999
76.292999 69.029999 -298.92999
76.309998 71.617996 -298.09
76.309998 71.849998 -298.09
76.309998 72.082001 -298.09
76.309998 72.313004 -298.09
76.327003 72.424004 -297.26001
76.820999 -62.058998 -282.88
76.792999 -61.958 -284.39999
76.807999 -61.540001 -283.64001
76.820999 -61.162998 -282.88
76.876999 -60.327999 -279.88
76.678001 -62.314999 -290.67999
76.587997 61.185001 -295.57999
76.587997 61.415001 -295.57999
76.541 62.160999 -298.07999
76.556 62.179001 -297.23999
76.540001 62.584 -298.07999
76.556999 62.721001 -297.25
76.542 63.127998 -298.09
76.542 63.359001 -298.09
76.542 63.591 -298.09
76.542 63.823002 -298.09
76.510002 64.606003 -299.78
76.509003 68.992996 -299.76999
76.510002 69.225998 -299.78
76.526001 71.628998 -298.92999
76.526001 71.820999 -298.92999
76.526001 72.053001 -298.92999
76.526001 72.286003 -298.92999
76.526001 72.517998 -298.92999
76.542999 72.628998 -298.10001
76.827003 76.844002 -282.92001
77.028 -62.230999 -283.64001
77.027 -62.036999 -283.64001
77 -62.131001 -285.17001
77 -61.937 -285.17001
77.028 -61.327999 -283.64001
77.081001 -60.488998 -280.62
76.889 -62.487 -291.48999
76.803001 61.356998 -296.41
76.803001 61.588001 -296.41
76.772003 62.355 -298.07999
76.758003 62.841999 -298.92999
76.773003 62.897999 -298.09
76.758003 63.306 -298.92999
76.758003 63.539001 -298.92999
76.758003 63.771 -298.92999
76.758003 64.002998 -298.92999
76.773003 64.016998 -298.07999
76.726997 64.790001 -300.63
76.758003 64.660004 -298.92999
76.758003 64.892998 -298.92999
76.726997 69.189003 -300.63
76.726997 69.422997 -300.63
76.744003 71.832001 -299.78
76.742996 72.025002 -299.78
76.742996 72.258003 -299.78
76.742996 72.490997 -299.78
76.744003 72.805 -299.79001
76.760002 72.834 -298.94
77.373001 -61.355 -276.20001
77.310997 -61.905998 -279.87
77.182999 -63.280998 -287.51001
77.235001 -62.403999 -284.39999
